# .PCD v0.7 - Point Cloud Data file format
VERSION 0.7
FIELDS x y z rgb
SIZE 4 4 4 4
TYPE F F F F
COUNT 1 1 1 1
WIDTH 997
HEIGHT 1
VIEWPOINT 0 0 0 1 0 0 0
POINTS 997
DATA ascii
0.43933773 -0.064726584 0.69848353 1.7011988e-38
0.4371438 -0.060959369 0.69943899 1.7011988e-38
0.43610948 -0.058835194 0.69853288 1.7011988e-38
0.43553579 -0.057321154 0.69946122 1.7011988e-38
0.43471158 -0.055239849 0.69821846 1.7011988e-38
0.43461883 -0.05311656 0.6983692 1.7011988e-38
0.43465891 -0.051017385 0.69830406 1.7011988e-38
0.47403833 -0.050046328 0.69837296 1.7011988e-38
0.43532991 -0.048862956 0.69979453 1.7011988e-38
0.43736279 -0.046230376 0.69908601 1.7011988e-38
0.43854296 -0.044858493 0.69976002 1.7011988e-38
0.43940598 -0.043584317 0.69837391 1.7011988e-38
0.44075191 -0.04223191 0.69879067 1.7011988e-38
0.44259065 -0.040949263 0.69842637 1.7011988e-38
0.44441754 -0.039658524 0.69809163 1.7011988e-38
0.44667488 -0.03828647 0.69965369 1.7011988e-38
0.44848961 -0.036983326 0.69936037 1.7011988e-38
0.45025146 -0.035667114 0.6991598 1.7011988e-38
0.45201975 -0.034346085 0.69895852 1.7011988e-38
0.45379454 -0.033020221 0.69875646 1.7011988e-38
0.45559126 -0.031691365 0.69852978 1.7011988e-38
0.45772842 -0.030339219 0.69906503 1.7011988e-38
0.45989919 -0.028985992 0.69956177 1.7011988e-38
0.46183586 -0.027656194 0.69915348 1.7011988e-38
0.46370333 -0.026312314 0.69886112 1.7011988e-38
0.46540213 -0.024944764 0.69883382 1.7011988e-38
0.46717197 -0.02357946 0.69870758 1.7011988e-38
0.46897525 -0.022212062 0.69853985 1.7011988e-38
0.4721725 -0.020877007 0.69884187 1.7011988e-38
0.47560853 -0.019554771 0.69881773 1.7011988e-38
0.45325509 -0.072812855 0.70086992 1.7011988e-38
0.44906694 -0.071010284 0.70101267 1.7011988e-38
0.44490871 -0.069221422 0.70116007 1.7011988e-38
0.44106805 -0.066097051 0.70085341 1.7011988e-38
0.44246471 -0.067597948 0.70119268 1.7011988e-38
0.43967432 -0.064599216 0.70051479 1.7011988e-38
0.4386071 -0.063073181 0.70094067 1.7011988e-38
0.47354102 -0.062913783 0.70187521 1.7011988e-38
0.4375971 -0.061562032 0.7012791 1.7011988e-38
0.4362722 -0.058682814 0.70084417 1.7011988e-38
0.43574405 -0.057180248 0.70169556 1.7011988e-38
0.43545884 -0.055113453 0.70087147 1.7011988e-38
0.4354524 -0.053009212 0.70088184 1.7011988e-38
0.43545175 -0.050906029 0.70088303 1.7011988e-38
0.43592674 -0.048802458 0.70140111 1.7011988e-38
0.43709472 -0.046811718 0.70080382 1.7011988e-38
0.43886197 -0.044757627 0.70181453 1.7011988e-38
0.43972433 -0.043485165 0.70043474 1.7011988e-38
0.44114083 -0.04214561 0.70073748 1.7011988e-38
0.44297791 -0.040864512 0.7003777 1.7011988e-38
0.44509247 -0.039547745 0.70086944 1.7011988e-38
0.44728601 -0.038236897 0.7012502 1.7011988e-38
0.44911987 -0.036937367 0.70092988 1.7011988e-38
0.45090097 -0.035624664 0.70070207 1.7011988e-38
0.45265299 -0.034302462 0.70052874 1.7011988e-38
0.45298192 -0.033128127 0.70105976 1.7011988e-38
0.45475405 -0.032957546 0.70109898 1.7011988e-38
0.45651501 -0.031625781 0.70093155 1.7011988e-38
0.45861989 -0.030271478 0.70151842 1.7011988e-38
0.46042717 -0.028934412 0.70129997 1.7011988e-38
0.46236295 -0.02760585 0.70089579 1.7011988e-38
0.46418524 -0.026258476 0.70067418 1.7011988e-38
0.46588296 -0.024892367 0.70064974 1.7011988e-38
0.46758604 -0.023521908 0.7006253 1.7011988e-38
0.46961224 -0.022177938 0.70012569 1.7011988e-38
0.47013819 -0.022133198 0.70187294 1.7011988e-38
0.47299278 -0.020861052 0.70015836 1.7011988e-38
0.47702205 -0.019547801 0.7005322 1.7011988e-38
0.48425144 -0.016403081 0.70126432 1.7011988e-38
0.45457929 -0.072784044 0.70264065 1.7011988e-38
0.45637977 -0.072962396 0.70241094 1.7011988e-38
0.44997388 -0.070997246 0.70214677 1.7011988e-38
0.45082861 -0.070973128 0.70336115 1.7011988e-38
0.44626445 -0.069202319 0.70285416 1.7011988e-38
0.44157594 -0.066003598 0.70260406 1.7011988e-38
0.44292629 -0.067493334 0.70301646 1.7011988e-38
0.44056183 -0.064487025 0.70293832 1.7011988e-38
0.43954808 -0.062973715 0.70327628 1.7011988e-38
0.43700773 -0.060043044 0.70222569 1.7011988e-38
0.43822455 -0.061496966 0.70283437 1.7011988e-38
0.4369823 -0.059245005 0.70354593 1.7011988e-38
0.43629682 -0.05710467 0.70336747 1.7011988e-38
0.4363029 -0.055005662 0.70335764 1.7011988e-38
0.43630987 -0.052906752 0.70334643 1.7011988e-38
0.43631685 -0.050807759 0.70333529 1.7011988e-38
0.43653435 -0.048744038 0.70298594 1.7011988e-38
0.43740362 -0.047407582 0.70286983 1.7011988e-38
0.43827415 -0.046068512 0.70275521 1.7011988e-38
0.43946064 -0.044701159 0.70341569 1.7011988e-38
0.44077906 -0.042932104 0.70301914 1.7011988e-38
0.44344717 -0.040792152 0.70219237 1.7011988e-38
0.44411939 -0.040749803 0.70368129 1.7011988e-38
0.44697478 -0.038832888 0.70301491 1.7011988e-38
0.44973409 -0.036889438 0.70252037 1.7011988e-38
0.45156062 -0.035583749 0.70222467 1.7011988e-38
0.45275596 -0.034901295 0.70291519 1.7011988e-38
0.45400691 -0.034226999 0.7035225 1.7011988e-38
0.45577759 -0.032903221 0.7033354 1.7011988e-38
0.45753568 -0.031572323 0.70317662 1.7011988e-38
0.45930016 -0.03023668 0.70301723 1.7011988e-38
0.46107084 -0.028896268 0.70285726 1.7011988e-38
0.46288902 -0.027555611 0.70263451 1.7011988e-38
0.46502954 -0.026191179 0.70320022 1.7011988e-38
0.46683431 -0.024838071 0.70301795 1.7011988e-38
0.46867138 -0.023482593 0.70279658 1.7011988e-38
0.47089636 -0.022111133 0.7032702 1.7011988e-38
0.47324979 -0.020792574 0.70230597 1.7011988e-38
0.47508079 -0.020824911 0.7033875 1.7011988e-38
0.47767848 -0.020928252 0.70335144 1.7011988e-38
0.4794178 -0.020997446 0.70332736 1.7011988e-38
0.48116261 -0.021066859 0.7033031 1.7011988e-38
0.4516682 -0.070945896 0.70459759 1.7011988e-38
0.45300686 -0.071024768 0.70506358 1.7011988e-38
0.45486408 -0.071213186 0.70473784 1.7011988e-38
0.45672888 -0.071402378 0.70441061 1.7011988e-38
0.44752744 -0.069163814 0.70469129 1.7011988e-38
0.443811 -0.067477487 0.70416743 1.7011988e-38
0.44544944 -0.067518592 0.70540422 1.7011988e-38
0.44159538 -0.064405091 0.70512193 1.7011988e-38
0.44264239 -0.06592688 0.70473862 1.7011988e-38
0.44023639 -0.062919989 0.70473117 1.7011988e-38
0.4392392 -0.061414361 0.70504284 1.7011988e-38
0.43712604 -0.058480904 0.70459199 1.7011988e-38
0.43824366 -0.059212193 0.70535553 1.7011988e-38
0.43702573 -0.05706244 0.70475262 1.7011988e-38
0.43809265 -0.057083577 0.70559621 1.7011988e-38
0.47942799 -0.05726812 0.70582122 1.7011988e-38
0.43748385 -0.054960053 0.70529449 1.7011988e-38
0.43745193 -0.052855462 0.70534527 1.7011988e-38
0.43746439 -0.050758854 0.70532537 1.7011988e-38
0.43755516 -0.048675235 0.70518029 1.7011988e-38
0.43868703 -0.046681691 0.70464873 1.7011988e-38
0.49207687 -0.047923647 0.70519561 1.7011988e-38
0.43966657 -0.045985125 0.70563614 1.7011988e-38
0.44064695 -0.044662099 0.70535219 1.7011988e-38
0.44169277 -0.043345593 0.70496786 1.7011988e-38
0.44274598 -0.04202627 0.70457518 1.7011988e-38
0.44479072 -0.040707514 0.70516819 1.7011988e-38
0.44670624 -0.039434254 0.7047053 1.7011988e-38
0.44887322 -0.03812217 0.70513046 1.7011988e-38
0.45071927 -0.036826573 0.70479923 1.7011988e-38
0.45297205 -0.03551456 0.70511723 1.7011988e-38
0.45531985 -0.034208804 0.70530319 1.7011988e-38
0.45712116 -0.032889005 0.70507526 1.7011988e-38
0.45886222 -0.031556133 0.70494854 1.7011988e-38
0.46060929 -0.030218624 0.70482135 1.7011988e-38
0.46189559 -0.028878905 0.70413691 1.7011988e-38
0.46277428 -0.028867744 0.70533359 1.7011988e-38
0.46362662 -0.027528953 0.70404935 1.7011988e-38
0.4644708 -0.027514141 0.70530158 1.7011988e-38
0.46619546 -0.02615862 0.70523542 1.7011988e-38
0.46801788 -0.024808105 0.70503193 1.7011988e-38
0.46984714 -0.023452546 0.70482773 1.7011988e-38
0.47168326 -0.022091921 0.70462275 1.7011988e-38
0.47298336 -0.022122238 0.70521677 1.7011988e-38
0.47518456 -0.022191554 0.70574719 1.7011988e-38
0.44895911 -0.069160961 0.70626366 1.7011988e-38
0.45085278 -0.06925483 0.70712292 1.7011988e-38
0.45336258 -0.069476761 0.70704287 1.7011988e-38
0.45521408 -0.069660984 0.70672739 1.7011988e-38
0.45707691 -0.069846749 0.70640481 1.7011988e-38
0.45940125 -0.068500787 0.70790923 1.7011988e-38
0.44714439 -0.066565387 0.70739913 1.7011988e-38
0.4489921 -0.067654878 0.70747656 1.7011988e-38
0.44284335 -0.064367011 0.70696068 1.7011988e-38
0.44468132 -0.0654504 0.70702964 1.7011988e-38
0.44132891 -0.062851816 0.7068125 1.7011988e-38
0.46620756 -0.063352391 0.70772922 1.7011988e-38
0.46800333 -0.062069684 0.70756471 1.7011988e-38
0.44106671 -0.061397951 0.70722699 1.7011988e-38
0.47207248 -0.061015837 0.70655882 1.7011988e-38
0.43931156 -0.059233919 0.70619988 1.7011988e-38
0.44091222 -0.05926609 0.70747101 1.7011988e-38
0.47306162 -0.059572972 0.70760787 1.7011988e-38
0.43916017 -0.057104729 0.70644021 1.7011988e-38
0.44022828 -0.057125896 0.70728475 1.7011988e-38
0.43900892 -0.054977227 0.70668048 1.7011988e-38
0.44007659 -0.054997813 0.70752466 1.7011988e-38
0.43939137 -0.05286108 0.70734251 1.7011988e-38
0.43909669 -0.0509721 0.70738721 1.7011988e-38
0.48733354 -0.050448075 0.70694077 1.7011988e-38
0.43871731 -0.048630409 0.70714355 1.7011988e-38
0.48969835 -0.049189508 0.70607066 1.7011988e-38
0.43955109 -0.047290076 0.70708895 1.7011988e-38
0.49080312 -0.046268813 0.70699728 1.7011988e-38
0.44101784 -0.045972046 0.70730412 1.7011988e-38
0.44258192 -0.044665474 0.70737195 1.7011988e-38
0.44309917 -0.043340951 0.70655799 1.7011988e-38
0.44468927 -0.042474788 0.70701718 1.7011988e-38
0.44633561 -0.0420608 0.70781648 1.7011988e-38
0.49190837 -0.043346837 0.70792425 1.7011988e-38
0.44568205 -0.040697441 0.70630747 1.7011988e-38
0.44733697 -0.040728528 0.7075206 1.7011988e-38
0.44735289 -0.039389379 0.70623124 1.7011988e-38
0.4489935 -0.039417334 0.70747411 1.7011988e-38
0.45074069 -0.038113713 0.70729554 1.7011988e-38
0.45253342 -0.036810651 0.70705593 1.7011988e-38
0.45388842 -0.035507798 0.70623553 1.7011988e-38
0.45482224 -0.035503343 0.70732665 1.7011988e-38
0.45721325 -0.034202881 0.70745653 1.7011988e-38
0.4589873 -0.032879431 0.70727897 1.7011988e-38
0.46109357 -0.031094054 0.70702881 1.7011988e-38
0.46277982 -0.03018745 0.70783991 1.7011988e-38
0.46361703 -0.02885256 0.70658314 1.7011988e-38
0.4644593 -0.028837387 0.70783186 1.7011988e-38
0.46531439 -0.02749934 0.7065531 1.7011988e-38
0.46701193 -0.02658456 0.70736748 1.7011988e-38
0.46925074 -0.024783416 0.70696783 1.7011988e-38
0.47113645 -0.024825905 0.70793796 1.7011988e-38
0.48589164 -0.024059854 0.70650536 1.7011988e-38
0.47065049 -0.023434579 0.70615 1.7011988e-38
0.47278932 -0.023500552 0.70675719 1.7011988e-38
0.47498608 -0.023571897 0.70728904 1.7011988e-38
0.47692329 -0.022940328 0.70696187 1.7011988e-38
0.47886753 -0.02230753 0.70663476 1.7011988e-38
0.48055691 -0.022374164 0.70668662 1.7011988e-38
0.4823994 -0.022455085 0.70652521 1.7011988e-38
0.48424864 -0.0225363 0.7063632 1.7011988e-38
0.45574182 -0.068149693 0.70843905 1.7011988e-38
0.45754576 -0.068320371 0.70820832 1.7011988e-38
0.44956085 -0.066163197 0.70911652 1.7011988e-38
0.4504807 -0.067664191 0.70895624 1.7011988e-38
0.45304942 -0.067894965 0.70878339 1.7011988e-38
0.45659345 -0.066706702 0.70965397 1.7011988e-38
0.45870829 -0.066936679 0.70895725 1.7011988e-38
0.46088827 -0.067178674 0.70817536 1.7011988e-38
0.44671825 -0.064568132 0.7084834 1.7011988e-38
0.44864309 -0.064665221 0.70927662 1.7011988e-38
0.46087879 -0.064941257 0.70944357 1.7011988e-38
0.46244955 -0.065867439 0.70833558 1.7011988e-38
0.46432477 -0.064612441 0.70803297 1.7011988e-38
0.4428764 -0.06287431 0.70817387 1.7011988e-38
0.44490811 -0.062992349 0.70878166 1.7011988e-38
0.44694483 -0.063110679 0.70939088 1.7011988e-38
0.46317703 -0.06296324 0.70974952 1.7011988e-38
0.44318575 -0.061438508 0.70895195 1.7011988e-38
0.4451353 -0.061538681 0.70968711 1.7011988e-38
0.46473873 -0.061644718 0.70991766 1.7011988e-38
0.46903431 -0.060641959 0.7085402 1.7011988e-38
0.44291708 -0.059284084 0.7093727 1.7011988e-38
0.47006553 -0.059213899 0.70951587 1.7011988e-38
0.47405076 -0.058130078 0.70865697 1.7011988e-38
0.44127882 -0.057143711 0.7081582 1.7011988e-38
0.44228458 -0.057153136 0.70910323 1.7011988e-38
0.4750399 -0.056687146 0.70970607 1.7011988e-38
0.44111338 -0.05501274 0.70841897 1.7011988e-38
0.4421187 -0.055021916 0.70936358 1.7011988e-38
0.47961104 -0.055678517 0.70805448 1.7011988e-38
0.48091519 -0.054278053 0.70866388 1.7011988e-38
0.44145054 -0.052887704 0.70915163 1.7011988e-38
0.482436 -0.052910157 0.70896536 1.7011988e-38
0.43972307 -0.050037913 0.70808399 1.7011988e-38
0.44128516 -0.050759912 0.70941174 1.7011988e-38
0.48396039 -0.051539153 0.7092675 1.7011988e-38
0.439614 -0.048620984 0.70825642 1.7011988e-38
0.44120458 -0.048647609 0.70953876 1.7011988e-38
0.44106364 -0.047303289 0.70849735 1.7011988e-38
0.44303447 -0.046689428 0.70918906 1.7011988e-38
0.44500715 -0.046074279 0.70988673 1.7011988e-38
0.44486767 -0.044723269 0.70884442 1.7011988e-38
0.44655859 -0.044762686 0.7099905 1.7011988e-38
0.44589192 -0.043401383 0.70850796 1.7011988e-38
0.44722521 -0.042753901 0.70895553 1.7011988e-38
0.4485606 -0.042105988 0.70940411 1.7011988e-38
0.44900787 -0.040761746 0.70871234 1.7011988e-38
0.45012289 -0.040783912 0.70950758 1.7011988e-38
0.49282825 -0.040399306 0.70911252 1.7011988e-38
0.45125136 -0.039464265 0.70902789 1.7011988e-38
0.453004 -0.038159728 0.70885205 1.7011988e-38
0.45474517 -0.038199965 0.70995766 1.7011988e-38
0.49280071 -0.038927577 0.70915115 1.7011988e-38
0.45476294 -0.036850475 0.7086755 1.7011988e-38
0.45660686 -0.036903039 0.70963353 1.7011988e-38
0.45595932 -0.035525423 0.70810759 1.7011988e-38
0.45715934 -0.035555597 0.70879495 1.7011988e-38
0.45909604 -0.035164658 0.70920706 1.7011988e-38
0.46081653 -0.034290448 0.70953685 1.7011988e-38
0.49063474 -0.03438504 0.70971906 1.7011988e-38
0.46124631 -0.032918271 0.70889044 1.7011988e-38
0.46304482 -0.032959994 0.70994723 1.7011988e-38
0.46326089 -0.031120226 0.70879036 1.7011988e-38
0.46493149 -0.030925788 0.70963049 1.7011988e-38
0.46636492 -0.030264027 0.7099967 1.7011988e-38
0.46564418 -0.028860945 0.70856869 1.7011988e-38
0.46684188 -0.028885849 0.70928872 1.7011988e-38
0.48781323 -0.028438855 0.70874697 1.7011988e-38
0.46731985 -0.027504753 0.70857924 1.7011988e-38
0.46912685 -0.027080582 0.70923644 1.7011988e-38
0.4710733 -0.026208092 0.70928073 1.7011988e-38
0.47314966 -0.026271861 0.70997477 1.7011988e-38
0.48575008 -0.026866134 0.70919722 1.7011988e-38
0.44190186 -0.024047397 0.70972538 1.7011988e-38
0.47258919 -0.024874114 0.70830131 1.7011988e-38
0.47476658 -0.024945837 0.70885921 1.7011988e-38
0.47694981 -0.025017753 0.70941854 1.7011988e-38
0.47840929 -0.025065828 0.70979249 1.7011988e-38
0.48400116 -0.025331289 0.7092092 1.7011988e-38
0.47792643 -0.023667391 0.70800096 1.7011988e-38
0.47939938 -0.023715112 0.70836061 1.7011988e-38
0.48086601 -0.023762003 0.70873463 1.7011988e-38
0.48233557 -0.02380899 0.70910949 1.7011988e-38
0.45095241 -0.066152923 0.71074283 1.7011988e-38
0.45273566 -0.066318735 0.71051788 1.7011988e-38
0.45452565 -0.066485174 0.7102921 1.7011988e-38
0.44944143 -0.064632885 0.71055758 1.7011988e-38
0.45023924 -0.064600572 0.71183765 1.7011988e-38
0.4538089 -0.064927429 0.71138424 1.7011988e-38
0.45590776 -0.065151855 0.71069491 1.7011988e-38
0.458731 -0.064711437 0.71017635 1.7011988e-38
0.44852489 -0.063138522 0.71071589 1.7011988e-38
0.45522416 -0.063601822 0.71173263 1.7011988e-38
0.45732886 -0.063823052 0.71104348 1.7011988e-38
0.45875281 -0.062491514 0.71139276 1.7011988e-38
0.46087432 -0.062710673 0.71070021 1.7011988e-38
0.44468528 -0.060048759 0.7103883 1.7011988e-38
0.44680962 -0.060882896 0.71085817 1.7011988e-38
0.46017975 -0.061157227 0.71174276 1.7011988e-38
0.46312866 -0.060722016 0.71107149 1.7011988e-38
0.4663046 -0.060322739 0.71008629 1.7011988e-38
0.44492462 -0.05860142 0.71127331 1.7011988e-38
0.46547508 -0.058742344 0.71131772 1.7011988e-38
0.4678545 -0.058993705 0.71028489 1.7011988e-38
0.4432584 -0.05715663 0.71009868 1.7011988e-38
0.44417608 -0.05714976 0.71118188 1.7011988e-38
0.46707976 -0.057424068 0.71143067 1.7011988e-38
0.4689723 -0.056868352 0.71112663 1.7011988e-38
0.47103509 -0.057056505 0.71058261 1.7011988e-38
0.47279 -0.056470193 0.71050066 1.7011988e-38
0.44312188 -0.055030659 0.71031219 1.7011988e-38
0.44405064 -0.055025987 0.71137738 1.7011988e-38
0.47009033 -0.05474063 0.71196944 1.7011988e-38
0.47215647 -0.054923758 0.71142733 1.7011988e-38
0.47423244 -0.055107765 0.7108826 1.7011988e-38
0.47633958 -0.05529622 0.71030438 1.7011988e-38
0.44344169 -0.052902199 0.71107054 1.7011988e-38
0.47359169 -0.053560935 0.71181607 1.7011988e-38
0.47564977 -0.053738013 0.71130574 1.7011988e-38
0.47746843 -0.053153064 0.71115327 1.7011988e-38
0.47940987 -0.052583404 0.71083272 1.7011988e-38
0.44329196 -0.050776772 0.71130443 1.7011988e-38
0.48095053 -0.05122216 0.71109784 1.7011988e-38
0.44295186 -0.048699975 0.71057826 1.7011988e-38
0.44469479 -0.04875125 0.71163046 1.7011988e-38
0.48249483 -0.049857669 0.71136361 1.7011988e-38
0.48404282 -0.048489928 0.71162993 1.7011988e-38
0.44511825 -0.047418587 0.71097171 1.7011988e-38
0.44674662 -0.046564978 0.71137398 1.7011988e-38
0.44853395 -0.046177536 0.71195596 1.7011988e-38
0.48630434 -0.047223188 0.71088916 1.7011988e-38
0.44766885 -0.044786185 0.71078348 1.7011988e-38
0.4488197 -0.044815816 0.71151578 1.7011988e-38
0.4501729 -0.044876434 0.71193945 1.7011988e-38
0.48799461 -0.044406362 0.71096981 1.7011988e-38
0.4490051 -0.043015536 0.71039391 1.7011988e-38
0.451022 -0.043078065 0.7114718 1.7011988e-38
0.45278603 -0.042232737 0.71169376 1.7011988e-38
0.45123869 -0.040806092 0.71030337 1.7011988e-38
0.45308492 -0.040863916 0.71123749 1.7011988e-38
0.45516181 -0.040954411 0.71182728 1.7011988e-38
0.48971748 -0.041584909 0.71101177 1.7011988e-38
0.4529469 -0.039499503 0.71019483 1.7011988e-38
0.45485187 -0.039563783 0.71104825 1.7011988e-38
0.4567658 -0.038728449 0.71106213 1.7011988e-38
0.45868355 -0.03834166 0.71149713 1.7011988e-38
0.4579218 -0.036949277 0.71014667 1.7011988e-38
0.45923871 -0.036995586 0.71066064 1.7011988e-38
0.46115679 -0.037057064 0.71152514 1.7011988e-38
0.48916984 -0.037131451 0.71178347 1.7011988e-38
0.46098715 -0.035674792 0.71053094 1.7011988e-38
0.46299922 -0.035033196 0.71126407 1.7011988e-38
0.46501595 -0.034390658 0.71199912 1.7011988e-38
0.48984116 -0.035753068 0.71083742 1.7011988e-38
0.46484783 -0.033001967 0.71100366 1.7011988e-38
0.46670866 -0.033050742 0.71197957 1.7011988e-38
0.48739886 -0.03266158 0.71181244 1.7011988e-38
0.4658891 -0.0316393 0.71070313 1.7011988e-38
0.46732551 -0.030977784 0.71106732 1.7011988e-38
0.46861616 -0.031014616 0.71165138 1.7011988e-38
0.4701919 -0.03036743 0.71182042 1.7011988e-38
0.48834395 -0.03131038 0.71047562 1.7011988e-38
0.46868858 -0.02892861 0.71029985 1.7011988e-38
0.47071493 -0.02899123 0.7110526 1.7011988e-38
0.47278753 -0.029058574 0.71174794 1.7011988e-38
0.48250186 -0.028083362 0.7113536 1.7011988e-38
0.48452917 -0.028921038 0.7109369 1.7011988e-38
0.48674572 -0.029783662 0.7102626 1.7011988e-38
0.47123915 -0.027611867 0.7102831 1.7011988e-38
0.47262216 -0.027655572 0.71074623 1.7011988e-38
0.47497708 -0.027029622 0.71104193 1.7011988e-38
0.47742349 -0.026410803 0.7112183 1.7011988e-38
0.47888184 -0.026460245 0.71159369 1.7011988e-38
0.48076648 -0.026553921 0.71136206 1.7011988e-38
0.48325026 -0.026709527 0.71028316 1.7011988e-38
0.47987181 -0.025114004 0.71016717 1.7011988e-38
0.48151094 -0.025179844 0.71029335 1.7011988e-38
0.45172083 -0.06470415 0.71207005 1.7011988e-38
0.44983131 -0.063112579 0.71246397 1.7011988e-38
0.45130301 -0.06321273 0.71270901 1.7011988e-38
0.4531303 -0.063381732 0.7124182 1.7011988e-38
0.4545992 -0.062067404 0.71268129 1.7011988e-38
0.45664233 -0.062273487 0.71208173 1.7011988e-38
0.44895756 -0.06092713 0.71255618 1.7011988e-38
0.45109645 -0.061060771 0.71302497 1.7011988e-38
0.45267254 -0.061178058 0.71311569 1.7011988e-38
0.45432174 -0.060602337 0.71310252 1.7011988e-38
0.45611554 -0.0607583 0.71287835 1.7011988e-38
0.45806336 -0.060942426 0.71243155 1.7011988e-38
0.44658244 -0.05864343 0.71246386 1.7011988e-38
0.44873416 -0.058777038 0.71289998 1.7011988e-38
0.45090902 -0.05891417 0.71331161 1.7011988e-38
0.45236331 -0.059005879 0.71358681 1.7011988e-38
0.45494071 -0.059215669 0.71341157 1.7011988e-38
0.4576357 -0.05944591 0.71307594 1.7011988e-38
0.45932356 -0.058869418 0.71302807 1.7011988e-38
0.46129012 -0.059051186 0.71257138 1.7011988e-38
0.46307933 -0.058486991 0.71239012 1.7011988e-38
0.44513953 -0.057151332 0.71219355 1.7011988e-38
0.44716457 -0.057259973 0.71281695 1.7011988e-38
0.44933373 -0.057394348 0.71322775 1.7011988e-38
0.45072177 -0.056769617 0.71359795 1.7011988e-38
0.45270619 -0.057131816 0.71389669 1.7011988e-38
0.4555583 -0.057827994 0.7137211 1.7011988e-38
0.45721576 -0.057246201 0.71370876 1.7011988e-38
0.45887828 -0.056662112 0.71369648 1.7011988e-38
0.46068752 -0.056811199 0.7134726 1.7011988e-38
0.46251124 -0.056962207 0.71323651 1.7011988e-38
0.46465737 -0.057169311 0.71253145 1.7011988e-38
0.44500545 -0.055025954 0.71240181 1.7011988e-38
0.44713396 -0.055150218 0.71286422 1.7011988e-38
0.44924495 -0.055270683 0.71336401 1.7011988e-38
0.45068347 -0.054652885 0.71365654 1.7011988e-38
0.46046054 -0.055351771 0.71381205 1.7011988e-38
0.4627451 -0.054575477 0.71371746 1.7011988e-38
0.46485734 -0.054980114 0.71347815 1.7011988e-38
0.4670606 -0.055190366 0.71270335 1.7011988e-38
0.44502813 -0.0529292 0.71236658 1.7011988e-38
0.44719273 -0.053056378 0.71277338 1.7011988e-38
0.44935614 -0.053182602 0.71319336 1.7011988e-38
0.45075953 -0.053259544 0.7135402 1.7011988e-38
0.45216584 -0.053336643 0.71388775 1.7011988e-38
0.46367198 -0.052725784 0.71399403 1.7011988e-38
0.46542537 -0.052855939 0.71387732 1.7011988e-38
0.46718484 -0.05298654 0.71376026 1.7011988e-38
0.46946281 -0.053202391 0.71289051 1.7011988e-38
0.4715246 -0.053381599 0.71235132 1.7011988e-38
0.47294694 -0.052017465 0.71275562 1.7011988e-38
0.47500062 -0.052190684 0.71224809 1.7011988e-38
0.4450689 -0.050835256 0.71230328 1.7011988e-38
0.44723374 -0.050958894 0.71271014 1.7011988e-38
0.44940513 -0.051082902 0.71311814 1.7011988e-38
0.45085329 -0.051165171 0.71339685 1.7011988e-38
0.45228043 -0.051243536 0.71371317 1.7011988e-38
0.46874183 -0.051652931 0.71394891 1.7011988e-38
0.47089446 -0.051843695 0.71327293 1.7011988e-38
0.47230399 -0.050478332 0.71369237 1.7011988e-38
0.47435325 -0.050647706 0.71318787 1.7011988e-38
0.47641212 -0.050817877 0.712681 1.7011988e-38
0.47848064 -0.050988846 0.71217167 1.7011988e-38
0.44730696 -0.048866335 0.71259701 1.7011988e-38
0.44944644 -0.04898151 0.71305472 1.7011988e-38
0.45089859 -0.049062058 0.71332747 1.7011988e-38
0.45307967 -0.049182624 0.71374369 1.7011988e-38
0.47385031 -0.049131162 0.71391797 1.7011988e-38
0.47576219 -0.049275398 0.7136209 1.7011988e-38
0.4778263 -0.049442507 0.71311462 1.7011988e-38
0.47959602 -0.048841178 0.71304238 1.7011988e-38
0.48132217 -0.048229389 0.71304077 1.7011988e-38
0.44924486 -0.047125768 0.71253157 1.7011988e-38
0.45109692 -0.046982441 0.71302426 1.7011988e-38
0.45319444 -0.04708625 0.7135691 1.7011988e-38
0.4755457 -0.047802679 0.713934 1.7011988e-38
0.4773308 -0.047203552 0.7138285 1.7011988e-38
0.4791221 -0.046602063 0.71372271 1.7011988e-38
0.48100501 -0.046734586 0.71349442 1.7011988e-38
0.4830628 -0.046892285 0.7130264 1.7011988e-38
0.45152867 -0.044937164 0.71236396 1.7011988e-38
0.45288688 -0.044998005 0.71278906 1.7011988e-38
0.4549292 -0.045089487 0.71342844 1.7011988e-38
0.47895241 -0.045133255 0.71396631 1.7011988e-38
0.48083436 -0.045262896 0.7137385 1.7011988e-38
0.48287129 -0.045414329 0.71329933 1.7011988e-38
0.48518738 -0.044878755 0.71247494 1.7011988e-38
0.45317638 -0.043630883 0.71234798 1.7011988e-38
0.45509663 -0.043254841 0.71275878 1.7011988e-38
0.45705017 -0.042881858 0.71312857 1.7011988e-38
0.45886543 -0.043195307 0.71371567 1.7011988e-38
0.46052533 -0.042587481 0.71371508 1.7011988e-38
0.46204376 -0.042667165 0.71393299 1.7011988e-38
0.48066378 -0.043792285 0.71398246 1.7011988e-38
0.4826746 -0.043212339 0.71357965 1.7011988e-38
0.48476946 -0.042639993 0.71306825 1.7011988e-38
0.48706335 -0.042819016 0.71228695 1.7011988e-38
0.45724741 -0.041045487 0.71241581 1.7011988e-38
0.45933837 -0.041136801 0.7130059 1.7011988e-38
0.46082151 -0.041209966 0.71327215 1.7011988e-38
0.46310309 -0.041327111 0.71359873 1.7011988e-38
0.46554253 -0.040752482 0.71370411 1.7011988e-38
0.46722537 -0.040137269 0.71370047 1.7011988e-38
0.46876168 -0.040214408 0.71391976 1.7011988e-38
0.48247802 -0.041012011 0.71385968 1.7011988e-38
0.4846375 -0.041169666 0.71325558 1.7011988e-38
0.48680782 -0.04132811 0.71264839 1.7011988e-38
0.4888553 -0.040010363 0.71222669 1.7011988e-38
0.45896441 -0.039733194 0.71232247 1.7011988e-38
0.46084452 -0.038889695 0.71240836 1.7011988e-38
0.46278843 -0.039215576 0.71282351 1.7011988e-38
0.46487403 -0.039085593 0.71303946 1.7011988e-38
0.46752411 -0.038748931 0.71326029 1.7011988e-38
0.46905398 -0.038823351 0.71349066 1.7011988e-38
0.47058761 -0.038897958 0.71372157 1.7011988e-38
0.47210282 -0.038969781 0.71398538 1.7011988e-38
0.48238736 -0.039551508 0.7139889 1.7011988e-38
0.4844996 -0.038973525 0.71345139 1.7011988e-38
0.48664856 -0.039123774 0.7128737 1.7011988e-38
0.48878062 -0.038541749 0.71233201 1.7011988e-38
0.46313268 -0.0371258 0.71231055 1.7011988e-38
0.46465224 -0.037197992 0.71253908 1.7011988e-38
0.46693891 -0.037306637 0.71288288 1.7011988e-38
0.46932271 -0.036711231 0.71309626 1.7011988e-38
0.47083798 -0.036780782 0.71335554 1.7011988e-38
0.47277132 -0.037101328 0.71383744 1.7011988e-38
0.47553182 -0.037006691 0.71395409 1.7011988e-38
0.47732586 -0.036389753 0.71383566 1.7011988e-38
0.47899836 -0.03647669 0.71390033 1.7011988e-38
0.48066169 -0.036562093 0.71398544 1.7011988e-38
0.48442316 -0.036786288 0.71355987 1.7011988e-38
0.48657078 -0.036931023 0.71298373 1.7011988e-38
0.46482897 -0.035794247 0.7122767 1.7011988e-38
0.46692154 -0.035419703 0.71249431 1.7011988e-38
0.46882552 -0.034562215 0.71258652 1.7011988e-38
0.47101253 -0.034652062 0.71310019 1.7011988e-38
0.47311977 -0.034731388 0.71374297 1.7011988e-38
0.47724193 -0.034937691 0.71395665 1.7011988e-38
0.47905821 -0.035040174 0.71381444 1.7011988e-38
0.48080206 -0.035133332 0.71378469 1.7011988e-38
0.48247093 -0.035216924 0.71386987 1.7011988e-38
0.48437226 -0.035328548 0.71363223 1.7011988e-38
0.4866432 -0.034756914 0.71288127 1.7011988e-38
0.46897653 -0.033148609 0.71236444 1.7011988e-38
0.47111678 -0.033230457 0.71294773 1.7011988e-38
0.47322467 -0.033307806 0.7135905 1.7011988e-38
0.47722614 -0.032052927 0.71397936 1.7011988e-38
0.47899014 -0.032866016 0.71391213 1.7011988e-38
0.48079458 -0.032962833 0.71379542 1.7011988e-38
0.48259884 -0.033059213 0.71368754 1.7011988e-38
0.48435289 -0.03314919 0.7136597 1.7011988e-38
0.46981889 -0.03175807 0.71236789 1.7011988e-38
0.47142097 -0.031113708 0.71250296 1.7011988e-38
0.47286728 -0.031168034 0.71287155 1.7011988e-38
0.4750427 -0.031249745 0.71342611 1.7011988e-38
0.47752595 -0.030645642 0.71354735 1.7011988e-38
0.47930795 -0.030736376 0.71345586 1.7011988e-38
0.48109609 -0.030827422 0.71336418 1.7011988e-38
0.48289043 -0.030918781 0.71327204 1.7011988e-38
0.48546809 -0.031098161 0.71207649 1.7011988e-38
0.47491032 -0.029131107 0.71237922 1.7011988e-38
0.4770956 -0.029210055 0.71293187 1.7011988e-38
0.47960979 -0.029324889 0.71302259 1.7011988e-38
0.48139966 -0.029413559 0.71292996 1.7011988e-38
0.47678578 -0.027787145 0.71214062 1.7011988e-38
0.47906744 -0.027873747 0.7125659 1.7011988e-38
0.45356911 -0.056232065 0.71424502 1.7011988e-38
0.45528024 -0.056365617 0.71414167 1.7011988e-38
0.45279381 -0.05477073 0.71417838 1.7011988e-38
0.455015 -0.054907262 0.71454275 1.7011988e-38
0.45682323 -0.055054858 0.71430016 1.7011988e-38
0.45863837 -0.055203028 0.71405655 1.7011988e-38
0.45361331 -0.05271557 0.71417785 1.7011988e-38
0.45503032 -0.052793093 0.71451962 1.7011988e-38
0.45660725 -0.05289745 0.7146256 1.7011988e-38
0.4583104 -0.053022854 0.71454883 1.7011988e-38
0.46070281 -0.052972574 0.71427888 1.7011988e-38
0.4537285 -0.050620094 0.71400309 1.7011988e-38
0.45514119 -0.050694674 0.71435195 1.7011988e-38
0.45664209 -0.050783463 0.71457303 1.7011988e-38
0.45901942 -0.050936554 0.71472812 1.7011988e-38
0.46162635 -0.051126346 0.71455503 1.7011988e-38
0.4634586 -0.051267564 0.71431088 1.7011988e-38
0.46521908 -0.051396482 0.71418238 1.7011988e-38
0.46687379 -0.050794125 0.7142185 1.7011988e-38
0.46853346 -0.050189599 0.71425486 1.7011988e-38
0.47032309 -0.050319083 0.71410847 1.7011988e-38
0.45521826 -0.049295612 0.71423537 1.7011988e-38
0.45667553 -0.049375594 0.71452266 1.7011988e-38
0.45907003 -0.048820227 0.7146523 1.7011988e-38
0.46145666 -0.048969455 0.71480787 1.7011988e-38
0.46315369 -0.049085326 0.71476352 1.7011988e-38
0.46491009 -0.049209971 0.71463943 1.7011988e-38
0.46662384 -0.048613876 0.71458673 1.7011988e-38
0.46846658 -0.04874967 0.71435302 1.7011988e-38
0.47115523 -0.048940476 0.71413112 1.7011988e-38
0.45531321 -0.047192816 0.71409178 1.7011988e-38
0.45675039 -0.04726721 0.71440983 1.7011988e-38
0.45912057 -0.046703469 0.71457654 1.7011988e-38
0.46152741 -0.046851307 0.71470243 1.7011988e-38
0.46315354 -0.04695262 0.71476376 1.7011988e-38
0.46478444 -0.047054224 0.71482515 1.7011988e-38
0.46661323 -0.047185712 0.71460241 1.7011988e-38
0.46845585 -0.047318749 0.71436864 1.7011988e-38
0.47086141 -0.047010045 0.71414763 1.7011988e-38
0.47310534 -0.046673667 0.71417648 1.7011988e-38
0.47537792 -0.046338543 0.71417665 1.7011988e-38
0.45697773 -0.045181394 0.71406734 1.7011988e-38
0.4584223 -0.045254268 0.71438092 1.7011988e-38
0.4611508 -0.044950008 0.71443772 1.7011988e-38
0.46333903 -0.044847626 0.71448833 1.7011988e-38
0.46497095 -0.044946175 0.71454942 1.7011988e-38
0.46663636 -0.045049325 0.71456838 1.7011988e-38
0.46843988 -0.045172509 0.71439219 1.7011988e-38
0.47028416 -0.044585146 0.71416545 1.7011988e-38
0.47283477 -0.044743489 0.71415782 1.7011988e-38
0.47528255 -0.044885971 0.7143147 1.7011988e-38
0.47707772 -0.045004115 0.71419317 1.7011988e-38
0.46022958 -0.043963164 0.71415746 1.7011988e-38
0.46356595 -0.042747036 0.7141515 1.7011988e-38
0.46515745 -0.042836562 0.71427351 1.7011988e-38
0.46679515 -0.042932324 0.71433437 1.7011988e-38
0.46843761 -0.043028377 0.71439546 1.7011988e-38
0.47027344 -0.043151677 0.71418113 1.7011988e-38
0.47285315 -0.043310773 0.714131 1.7011988e-38
0.47531036 -0.042732265 0.71427441 1.7011988e-38
0.47694856 -0.042824551 0.71437925 1.7011988e-38
0.47869813 -0.042932194 0.71433133 1.7011988e-38
0.48049331 -0.042322747 0.71422625 1.7011988e-38
0.4669233 -0.041523255 0.7141456 1.7011988e-38
0.46856338 -0.04161682 0.71421087 1.7011988e-38
0.47030026 -0.04100747 0.71414191 1.7011988e-38
0.47288084 -0.04116147 0.7140907 1.7011988e-38
0.47533828 -0.040578328 0.71423405 1.7011988e-38
0.47697657 -0.040667549 0.71433896 1.7011988e-38
0.47861958 -0.040757023 0.71444416 1.7011988e-38
0.48032933 -0.040855139 0.71446085 1.7011988e-38
0.47376257 -0.039060537 0.71404529 1.7011988e-38
0.47541004 -0.039149273 0.71413022 1.7011988e-38
0.47706223 -0.039238263 0.71421546 1.7011988e-38
0.47871929 -0.039327517 0.71430093 1.7011988e-38
0.48038119 -0.039417032 0.71438664 1.7011988e-38
0.48233676 -0.038096726 0.71406108 1.7011988e-38
0.47371805 -0.036181454 0.7141099 1.7011988e-38
0.47720104 -0.037815332 0.71401542 1.7011988e-38
0.47885883 -0.037902534 0.71410066 1.7011988e-38
0.48052138 -0.037989993 0.71418613 1.7011988e-38
0.48232985 -0.036647748 0.71407086 1.7011988e-38
0.4754321 -0.03483557 0.71409839 1.7011988e-38
0.47534859 -0.033386655 0.71421909 1.7011988e-38
0.47715789 -0.03348615 0.71407759 1.7011988e-38
0.45081753 -0.035358876 0.72072923 1.7011988e-38
0.4599925 -0.02152792 0.72165561 1.7011988e-38
0.61052412 0.13046004 0.62005806 2.0464891e-38
0.60804284 0.13714938 0.62045121 2.0464891e-38
0.60755301 0.13878441 0.62107849 2.0464891e-38
0.60706407 0.14041677 0.62170482 2.0464891e-38
0.60822558 0.13177009 0.62299114 2.0464891e-38
0.60759681 0.13338056 0.62379354 2.0464891e-38
0.60633224 0.14285991 0.62264204 2.0464891e-38
0.60564697 0.14530706 0.62351972 2.0464891e-38
0.59942031 0.12033126 0.62489802 2.0464891e-38
0.60806537 0.13152289 0.62595791 2.0464891e-38
0.6072638 0.13504383 0.62421846 2.0464891e-38
0.60706103 0.1367304 0.62447727 2.0464891e-38
0.60685843 0.13841581 0.62473583 2.0464891e-38
0.60652208 0.14093502 0.62516505 2.0464891e-38
0.60786247 0.1332096 0.62621588 2.0464891e-38
0.6076597 0.13489516 0.62647367 2.0464891e-38
0.6074571 0.13657957 0.62673122 2.0464891e-38
0.60712814 0.13823798 0.62714946 2.0464891e-38
0.60576588 0.1433654 0.62613004 2.0464891e-38
0.60581034 0.14509617 0.62607324 2.0464891e-38
0.60585487 0.14682721 0.62601638 2.0464891e-38
0.60846001 0.13137895 0.62820929 2.0464891e-38
0.60825723 0.1330635 0.62846613 2.0464891e-38
0.60786712 0.13471124 0.62896037 2.0464891e-38
0.60709405 0.1362828 0.62993968 2.0464891e-38
0.60635555 0.13980612 0.62813187 2.0464891e-38
0.60590613 0.14143509 0.62870324 2.0464891e-38
0.60595059 0.1431627 0.62864667 2.0464891e-38
0.60599506 0.14489055 0.62859017 2.0464891e-38
0.60603952 0.14661869 0.62853354 2.0464891e-38
0.60608399 0.14834706 0.6284771 2.0464891e-38
0.60612845 0.15007572 0.62842053 2.0464891e-38
0.60873705 0.13121393 0.63060182 2.0464891e-38
0.60809475 0.13281383 0.63141263 2.0464891e-38
0.606323 0.13785028 0.63091648 2.0464891e-38
0.6060459 0.1395115 0.63126737 2.0464891e-38
0.60609037 0.14123595 0.63121116 2.0464891e-38
0.60613477 0.14296067 0.63115489 2.0464891e-38
0.60617918 0.14468563 0.63109863 2.0464891e-38
0.60605985 0.14637642 0.63124973 2.0464891e-38
0.60588825 0.14891285 0.63146716 2.0464891e-38
0.60657912 0.15163681 0.63059199 2.0464891e-38
0.60919231 0.1310823 0.63276207 2.0464891e-38
0.60849857 0.13267076 0.63363451 2.0464891e-38
0.60745382 0.13441026 0.63222158 2.0464891e-38
0.6065886 0.13681629 0.6333136 2.0464891e-38
0.60619605 0.13930926 0.63380903 2.0464891e-38
0.60758084 0.15159991 0.63206124 2.0464891e-38
0.60858196 0.15156305 0.63352966 2.0464891e-38
0.60965317 0.13095218 0.63490868 2.0464891e-38
0.60895973 0.13253891 0.63577759 2.0464891e-38
0.60751307 0.13505599 0.63487387 2.0464891e-38
0.60694396 0.13751486 0.6355896 2.0464891e-38
0.60677707 0.13919315 0.63579947 2.0464891e-38
0.60634691 0.1409348 0.63498032 2.0464891e-38
0.60586256 0.14266622 0.63423002 2.0464891e-38
0.60570711 0.14434561 0.63442618 2.0464891e-38
0.60555208 0.14687946 0.6346218 2.0464891e-38
0.60590798 0.14952235 0.63417268 2.0464891e-38
0.60958254 0.15152618 0.63499725 2.0464891e-38
0.61620516 0.15392518 0.63490319 2.0464891e-38
0.59682035 0.12146086 0.63777387 2.0464891e-38
0.6099779 0.13079771 0.63721883 2.0464891e-38
0.60763764 0.13571279 0.63743424 2.0464891e-38
0.6082679 0.13412195 0.63664442 2.0464891e-38
0.60738474 0.13737352 0.63775098 2.0464891e-38
0.6065563 0.14256984 0.63607711 2.0464891e-38
0.60639381 0.14510126 0.63628137 2.0464891e-38
0.60623151 0.14763145 0.63648552 2.0464891e-38
0.60611314 0.14931524 0.63663435 2.0464891e-38
0.61058259 0.15148936 0.636464 2.0464891e-38
0.61005211 0.1305981 0.63983291 2.0464891e-38
0.60873747 0.13313486 0.63876736 2.0464891e-38
0.60800445 0.13555983 0.63968259 2.0464891e-38
0.60775179 0.13721839 0.63999802 2.0464891e-38
0.60716957 0.13904022 0.63802069 2.0464891e-38
0.60697418 0.14070967 0.63826549 2.0464891e-38
0.60677898 0.142378 0.63850999 2.0464891e-38
0.60648644 0.14487833 0.63887656 2.0464891e-38
0.6061942 0.14737646 0.63924277 2.0464891e-38
0.60599953 0.1490404 0.63948673 2.0464891e-38
0.60885286 0.13293906 0.64132458 2.0464891e-38
0.6083703 0.13540728 0.64192486 2.0464891e-38
0.6074993 0.13887554 0.64031315 2.0464891e-38
0.60724711 0.14053127 0.64062804 2.0464891e-38
0.60686922 0.14301205 0.64109981 2.0464891e-38
0.60649168 0.14549002 0.64157104 2.0464891e-38
0.60624039 0.14714013 0.64188486 2.0464891e-38
0.60946465 0.13113071 0.64325702 2.0464891e-38
0.60811776 0.13706368 0.64223886 2.0464891e-38
0.60785592 0.13871677 0.64256465 2.0464891e-38
0.6072427 0.14114895 0.64332736 2.0464891e-38
0.60591227 0.14877233 0.64229453 2.0464891e-38
0.60977429 0.13012375 0.64555764 2.0464891e-38
0.60857379 0.13352175 0.64436102 2.0464891e-38
0.60816467 0.13514632 0.64486814 2.0464891e-38
0.60775602 0.13676867 0.64537454 2.0464891e-38
0.60734802 0.13838877 0.64588028 2.0464891e-38
0.60663068 0.14357667 0.64408875 2.0464891e-38
0.60622334 0.14519218 0.64459532 2.0464891e-38
0.60620314 0.14688709 0.64462054 2.0464891e-38
0.60624534 0.14859527 0.64456809 2.0464891e-38
0.60628754 0.15030371 0.64451557 2.0464891e-38
0.60899395 0.13168241 0.64652115 2.0464891e-38
0.60821581 0.13323699 0.64748204 2.0464891e-38
0.60673702 0.14081445 0.64663744 2.0464891e-38
0.60649592 0.14331132 0.6469363 2.0464891e-38
0.60653812 0.14501676 0.64688408 2.0464891e-38
0.60658026 0.14672244 0.64683181 2.0464891e-38
0.60662234 0.14842834 0.64677954 2.0464891e-38
0.6066646 0.1501345 0.64672726 2.0464891e-38
0.60974926 0.12990862 0.64826226 2.0464891e-38
0.60897058 0.13146448 0.64922029 2.0464891e-38
0.6076566 0.13482881 0.64817256 2.0464891e-38
0.60724956 0.13644682 0.64867526 2.0464891e-38
0.6068154 0.13890429 0.64921129 2.0464891e-38
0.60683 0.14144868 0.64919329 2.0464891e-38
0.60663897 0.14310387 0.6494292 2.0464891e-38
0.60650742 0.14985049 0.64959157 2.0464891e-38
0.60726947 0.15171076 0.64865059 2.0464891e-38
0.60972083 0.12969372 0.65096051 2.0464891e-38
0.60894191 0.13124642 0.65191531 2.0464891e-38
0.60819393 0.13301626 0.65017581 2.0464891e-38
0.60741901 0.13456392 0.65112919 2.0464891e-38
0.60687983 0.13615263 0.65179259 2.0464891e-38
0.60602188 0.14466956 0.65019113 2.0464891e-38
0.60565943 0.14713088 0.65063876 2.0464891e-38
0.60672903 0.14964929 0.65197808 2.0464891e-38
0.60749024 0.15150639 0.65104163 2.0464891e-38
0.60968727 0.12947874 0.65365428 2.0464891e-38
0.60816497 0.13279505 0.65286767 2.0464891e-38
0.60748321 0.13435729 0.65370345 2.0464891e-38
0.60664302 0.13779742 0.65208393 2.0464891e-38
0.60640639 0.13944089 0.65237504 2.0464891e-38
0.60617 0.14108308 0.65266597 2.0464891e-38
0.60593367 0.14272393 0.6529566 2.0464891e-38
0.60574925 0.14437418 0.65318352 2.0464891e-38
0.60555613 0.14686513 0.65342116 2.0464891e-38
0.6075654 0.15127106 0.65360272 2.0464891e-38
0.60847241 0.15316132 0.65249085 2.0464891e-38
0.60945398 0.15481529 0.65393931 2.0464891e-38
0.60893404 0.13103303 0.65457433 2.0464891e-38
0.60825706 0.13259727 0.65540117 2.0464891e-38
0.60680825 0.13591695 0.65453082 2.0464891e-38
0.60653102 0.13755046 0.65487063 2.0464891e-38
0.60629499 0.13919052 0.65516007 2.0464891e-38
0.60609341 0.14083621 0.65540713 2.0464891e-38
0.60596472 0.1424956 0.65556484 2.0464891e-38
0.6057719 0.14498323 0.6558013 2.0464891e-38
0.60595822 0.1492352 0.65557283 2.0464891e-38
0.60839498 0.15288979 0.65523273 2.0464891e-38
0.6097073 0.12927425 0.65627241 2.0464891e-38
0.60902995 0.1308395 0.65709674 2.0464891e-38
0.60835409 0.13240117 0.65791917 2.0464891e-38
0.60724473 0.13493651 0.65663767 2.0464891e-38
0.60643661 0.13730787 0.65762472 2.0464891e-38
0.60629034 0.13896227 0.65780324 2.0464891e-38
0.60613799 0.1406146 0.65798938 2.0464891e-38
0.60557455 0.14746845 0.65604317 2.0464891e-38
0.60654557 0.1507982 0.65749162 2.0464891e-38
0.60906792 0.15447204 0.65705049 2.0464891e-38
0.60975802 0.12907605 0.65884328 2.0464891e-38
0.60903555 0.13063017 0.65971929 2.0464891e-38
0.60763413 0.13395068 0.65879536 2.0464891e-38
0.60691851 0.13549694 0.65966618 2.0464891e-38
0.60590959 0.14309141 0.65826833 2.0464891e-38
0.60568136 0.14556651 0.65854716 2.0464891e-38
0.60552931 0.14721544 0.65873283 2.0464891e-38
0.60537732 0.14886354 0.65891844 2.0464891e-38
0.60709327 0.15234977 0.65945351 2.0464891e-38
0.61087602 0.15449038 0.65880299 2.0464891e-38
0.60971546 0.12886187 0.66151714 2.0464891e-38
0.60759884 0.13372767 0.66146135 2.0464891e-38
0.60831481 0.13218051 0.66059321 2.0464891e-38
0.60642421 0.13708219 0.66026777 2.0464891e-38
0.60626805 0.13873139 0.66045785 2.0464891e-38
0.60611188 0.14037971 0.66064781 2.0464891e-38
0.605878 0.14285046 0.66093254 2.0464891e-38
0.60564411 0.14531946 0.66121715 2.0464891e-38
0.60548836 0.14696433 0.6614067 2.0464891e-38
0.60533267 0.14860831 0.66159612 2.0464891e-38
0.60518104 0.1502523 0.6617806 2.0464891e-38
0.60818028 0.1523367 0.66075635 2.0464891e-38
0.6127786 0.15452963 0.66044211 2.0464891e-38
0.60863626 0.13118717 0.66282082 2.0464891e-38
0.6068939 0.13527289 0.66231608 2.0464891e-38
0.60641098 0.13685721 0.66290164 2.0464891e-38
0.60625511 0.13850325 0.66309059 2.0464891e-38
0.60594362 0.14179271 0.6634683 2.0464891e-38
0.60609931 0.14014842 0.66327953 2.0464891e-38
0.60578799 0.14343615 0.66365707 2.0464891e-38
0.6056416 0.14508063 0.66383451 2.0464891e-38
0.6055482 0.14673546 0.66394782 2.0464891e-38
0.60889232 0.15224145 0.66251153 2.0464891e-38
0.6086036 0.13097098 0.66546762 2.0464891e-38
0.60757291 0.13350728 0.66410553 2.0464891e-38
0.6068694 0.13504972 0.66495544 2.0464891e-38
0.60639781 0.13663313 0.6655252 2.0464891e-38
0.60619253 0.13910261 0.66577315 2.0464891e-38
0.60604942 0.14158306 0.66594613 2.0464891e-38
0.592269 0.14291191 0.66565847 2.0464891e-38
0.60545474 0.14838977 0.66406107 2.0464891e-38
0.60536134 0.15004355 0.66417432 2.0464891e-38
0.60894471 0.12998748 0.66765571 2.0464891e-38
0.60754824 0.133288 0.66673797 2.0464891e-38
0.60686743 0.13483171 0.66755748 2.0464891e-38
0.60595596 0.14323638 0.66605896 2.0464891e-38
0.60586262 0.14488919 0.66617179 2.0464891e-38
0.60576928 0.14654148 0.66628456 2.0464891e-38
0.60562938 0.14901885 0.6664536 2.0464891e-38
0.60753077 0.15169272 0.66675889 2.0464891e-38
0.60894316 0.15342629 0.66765755 2.0464891e-38
0.608262 0.13153566 0.6684745 2.0464891e-38
0.60758084 0.13308027 0.66929144 2.0464891e-38
0.60643792 0.13642019 0.66807449 2.0464891e-38
0.60629737 0.1388979 0.66824365 2.0464891e-38
0.60615695 0.14137456 0.66841263 2.0464891e-38
0.60606337 0.14302498 0.66852534 2.0464891e-38
0.60596979 0.14467487 0.66863799 2.0464891e-38
0.6058507 0.14715317 0.66878134 2.0464891e-38
0.60580957 0.14964738 0.66883075 2.0464891e-38
0.61065519 0.15522817 0.66820049 2.0464891e-38
0.60830146 0.13133287 0.67101312 2.0464891e-38
0.60761333 0.13287333 0.67183542 2.0464891e-38
0.60690129 0.13462135 0.67010653 2.0464891e-38
0.6064229 0.13703094 0.67068017 2.0464891e-38
0.60628265 0.13950381 0.67084843 2.0464891e-38
0.60618919 0.1411517 0.67096049 2.0464891e-38
0.60610861 0.14280169 0.67105716 2.0464891e-38
0.60609311 0.1444647 0.6710757 2.0464891e-38
0.60606992 0.14695907 0.6711036 2.0464891e-38
0.60604668 0.14945325 0.67113143 2.0464891e-38
0.60667825 0.15125729 0.67037392 2.0464891e-38
0.6090163 0.1531904 0.67015886 2.0464891e-38
0.61077088 0.15499899 0.67064905 2.0464891e-38
0.60843164 0.13114755 0.67343414 2.0464891e-38
0.60671818 0.13520268 0.67290521 2.0464891e-38
0.606408 0.13763946 0.67327583 2.0464891e-38
0.60637587 0.13929695 0.67331421 2.0464891e-38
0.60636038 0.14095762 0.67333269 2.0464891e-38
0.60634494 0.14261822 0.67335117 2.0464891e-38
0.60632169 0.14510894 0.67337883 2.0464891e-38
0.60629851 0.14759946 0.67340666 2.0464891e-38
0.60628301 0.1492597 0.67342508 2.0464891e-38
0.60626757 0.15091985 0.67344356 2.0464891e-38
0.61054128 0.15469377 0.67349821 2.0464891e-38
0.60772586 0.13268211 0.67427456 2.0464891e-38
0.60675955 0.13499385 0.67542499 2.0464891e-38
0.6077497 0.1526601 0.67424613 2.0464891e-38
0.61125606 0.1545997 0.67521942 2.0464891e-38
0.60783195 0.13249046 0.67671239 2.0464891e-38
0.60697842 0.13481978 0.67772484 2.0464891e-38
0.60610527 0.13735902 0.67620409 2.0464891e-38
0.60570979 0.13894057 0.67667496 2.0464891e-38
0.60539025 0.14053515 0.67705542 2.0464891e-38
0.60527968 0.1429992 0.67718703 2.0464891e-38
0.60530239 0.14549029 0.67715997 2.0464891e-38
0.60558212 0.14720717 0.67682689 2.0464891e-38
0.60586208 0.14892569 0.67649359 2.0464891e-38
0.60614234 0.15064584 0.67615992 2.0464891e-38
0.60688764 0.15222082 0.6778326 2.0464891e-38
0.61477703 0.15654738 0.67619681 2.0464891e-38
0.60768783 0.1330816 0.67943716 2.0464891e-38
0.60638469 0.13719308 0.67842925 2.0464891e-38
0.60598958 0.13877246 0.67889798 2.0464891e-38
0.60559493 0.14034973 0.67936617 2.0464891e-38
0.60523337 0.14523995 0.67979515 2.0464891e-38
0.6054787 0.1469461 0.67950404 2.0464891e-38
0.60575801 0.1486609 0.67917269 2.0464891e-38
0.60603762 0.15037733 0.67884099 2.0464891e-38
0.61062425 0.15420711 0.67852288 2.0464891e-38
0.61430401 0.15618639 0.67930484 2.0464891e-38
0.60773152 0.13370615 0.68192977 2.0464891e-38
0.60812742 0.13212475 0.68146348 2.0464891e-38
0.60705864 0.13544828 0.68018091 2.0464891e-38
0.60666335 0.13702761 0.68064809 2.0464891e-38
0.60617185 0.13858575 0.68122911 2.0464891e-38
0.60529882 0.14100438 0.6809898 2.0464891e-38
0.60499054 0.1435357 0.68008316 2.0464891e-38
0.60573035 0.14841346 0.68175089 2.0464891e-38
0.60597324 0.1501186 0.68146372 2.0464891e-38
0.60621643 0.15182513 0.6811763 2.0464891e-38
0.60840333 0.13196671 0.68367594 2.0464891e-38
0.60732377 0.13528308 0.68240988 2.0464891e-38
0.60672849 0.13682134 0.68311095 2.0464891e-38
0.60613215 0.13835606 0.68381327 2.0464891e-38
0.60498488 0.14165242 0.68263203 2.0464891e-38
0.60499686 0.14330527 0.68261784 2.0464891e-38
0.60524309 0.14500701 0.68232673 2.0464891e-38
0.60548759 0.14670974 0.68203783 2.0464891e-38
0.60650599 0.15164152 0.68337303 2.0464891e-38
0.60941869 0.15368889 0.68248451 2.0464891e-38
0.61298823 0.15563841 0.68338096 2.0464891e-38
0.60787946 0.1335218 0.68429071 2.0464891e-38
0.60727608 0.13505879 0.68499875 2.0464891e-38
0.60666788 0.13659148 0.68571246 2.0464891e-38
0.60552514 0.13988531 0.68452823 2.0464891e-38
0.60541409 0.14151159 0.68465894 2.0464891e-38
0.60533792 0.1431444 0.68474871 2.0464891e-38
0.60526168 0.14477676 0.68483847 2.0464891e-38
0.60512811 0.14639661 0.68499577 2.0464891e-38
0.60544729 0.14893696 0.6846199 2.0464891e-38
0.6071462 0.15153532 0.6851511 2.0464891e-38
0.61005849 0.1535807 0.68426865 2.0464891e-38
0.61342978 0.1554845 0.68539661 2.0464891e-38
0.61587435 0.15743892 0.68508989 2.0464891e-38
0.60842007 0.13176131 0.68618423 2.0464891e-38
0.60781062 0.13329744 0.68689674 2.0464891e-38
0.60720801 0.13483146 0.68760139 2.0464891e-38
0.60608876 0.13895005 0.68639207 2.0464891e-38
0.60592425 0.14138764 0.68658501 2.0464891e-38
0.60576421 0.1430016 0.68677276 2.0464891e-38
0.60560429 0.14461467 0.68696046 2.0464891e-38
0.60536456 0.14703254 0.68724173 2.0464891e-38
0.60544145 0.14951701 0.68715155 2.0464891e-38
0.60778546 0.15142931 0.68692613 2.0464891e-38
0.61069715 0.15347266 0.68604982 2.0464891e-38
0.60846502 0.13156191 0.68865019 2.0464891e-38
0.60786933 0.13309783 0.68934417 2.0464891e-38
0.6066066 0.13718502 0.68830448 2.0464891e-38
0.60635525 0.13960341 0.68859833 2.0464891e-38
0.60618788 0.14121446 0.68879408 2.0464891e-38
0.60602051 0.14282459 0.68898976 2.0464891e-38
0.60585332 0.1444338 0.68918526 2.0464891e-38
0.60560048 0.14684534 0.68948084 2.0464891e-38
0.60534692 0.14925486 0.68977731 2.0464891e-38
0.60958964 0.15298036 0.68985385 2.0464891e-38
0.61201006 0.15491676 0.68955886 2.0464891e-38
0.6144411 0.15686163 0.68926263 2.0464891e-38
0.60867995 0.13139457 0.69090974 2.0464891e-38
0.60801053 0.13291439 0.69168669 2.0464891e-38
0.60727477 0.13463065 0.69003671 2.0464891e-38
0.6066758 0.1369805 0.69073451 2.0464891e-38
0.60642487 0.13939469 0.69102675 2.0464891e-38
0.60625774 0.14100292 0.69122154 2.0464891e-38
0.60608613 0.14260933 0.69142139 2.0464891e-38
0.60575306 0.14500125 0.69180942 2.0464891e-38
0.60602343 0.15080038 0.69149452 2.0464891e-38
0.60890532 0.13122979 0.69314957 2.0464891e-38
0.60823834 0.13274783 0.69392091 2.0464891e-38
0.60708547 0.13520195 0.69276041 2.0464891e-38
0.60665655 0.13757943 0.69325829 2.0464891e-38
0.6064344 0.13917485 0.69351614 2.0464891e-38
0.60621244 0.14076906 0.69377375 2.0464891e-38
0.60542035 0.14739077 0.69219702 2.0464891e-38
0.60542828 0.14903156 0.69218779 2.0464891e-38
0.60610354 0.15057454 0.69390011 2.0464891e-38
0.6091435 0.13106798 0.6953671 2.0464891e-38
0.60724741 0.13501933 0.69506693 2.0464891e-38
