# .PCD v0.7 - Point Cloud Data file format
VERSION 0.7
FIELDS x y z rgb
SIZE 4 4 4 4
TYPE F F F F
COUNT 1 1 1 1
WIDTH 1005
HEIGHT 1
VIEWPOINT 0 0 0 1 0 0 0
POINTS 1005
DATA ascii
0.41527128 -0.34489736 0.81696522 6.2448278e-39
0.41322428 -0.34110081 0.81672919 6.2448278e-39
0.4114542 -0.33779699 0.81715393 6.2448278e-39
0.40969241 -0.33450866 0.81757671 6.2448278e-39
0.40915412 -0.33355206 0.81625944 6.2448278e-39
0.40768155 -0.33076793 0.81732357 6.2448278e-39
0.40578258 -0.32713485 0.81692219 6.2448278e-39
0.40414774 -0.32398266 0.81719363 6.2448278e-39
0.40251958 -0.32084334 0.81746393 6.337022e-39
0.40205532 -0.31995046 0.81604707 6.2448278e-39
0.40066573 -0.31727001 0.81702632 6.2448278e-39
0.39977306 -0.31503242 0.817285 6.2448278e-39
0.39903012 -0.3132506 0.81697726 6.2448278e-39
0.39823806 -0.31078529 0.81744194 6.2448278e-39
0.39733684 -0.30890629 0.8166728 6.2448278e-39
0.39670873 -0.30655378 0.81759828 6.2448278e-39
0.39601797 -0.30546075 0.81652224 6.2448278e-39
0.39523211 -0.30301335 0.81698543 6.2448278e-39
0.39449501 -0.30124545 0.81668001 6.2448278e-39
0.39352876 -0.29836741 0.8170656 6.2448278e-39
0.39408046 -0.29968983 0.81729531 6.2448278e-39
0.3929776 -0.29704565 0.81683725 6.2448278e-39
0.39254284 -0.29487827 0.81748509 6.2448278e-39
0.39424783 -0.29261321 0.81704688 6.2448278e-39
0.39598387 -0.29095936 0.81657261 6.2448278e-39
0.39713725 -0.28941941 0.81696689 6.2448278e-39
0.39859343 -0.28812188 0.81692028 6.2448278e-39
0.39994884 -0.28733975 0.81702793 6.2448278e-39
0.40130806 -0.28655547 0.81713587 1.0595649e-38
0.40309635 -0.28549835 0.81662667 9.6697371e-39
0.40477952 -0.2845355 0.81697685 6.7997994e-39
0.40689865 -0.28329581 0.81670856 9.5793464e-39
0.40859455 -0.2823256 0.81705976 1.087476e-38
0.40954268 -0.28180379 0.81779009 1.1613401e-38
0.41104934 -0.28090057 0.81703466 1.0597453e-38
0.41319889 -0.27964318 0.81676507 1.0319788e-38
0.41529781 -0.27843192 0.8169291 1.0320148e-38
0.41739684 -0.27721035 0.81710446 1.0505259e-38
0.41879272 -0.2763865 0.81723398 1.0597456e-38
0.4196766 -0.27580136 0.81600213 8.6552363e-39
0.42109147 -0.27518699 0.81680918 1.0134681e-38
0.42325711 -0.27470523 0.81727517 1.0688931e-38
0.42438334 -0.27428782 0.81779903 1.0780403e-38
0.4256798 -0.27367425 0.8170563 9.1158515e-39
0.42733258 -0.27300471 0.81686878 6.6150508e-39
0.42907411 -0.27208823 0.81760526 6.2448278e-39
0.43064862 -0.27134991 0.81754029 6.2448278e-39
0.43222862 -0.27060902 0.81747502 6.2448278e-39
0.43381411 -0.26986551 0.81740952 6.7979945e-39
0.43540519 -0.26911944 0.81734383 9.1957689e-39
0.43700194 -0.26837075 0.81727779 7.35152e-39
0.43860412 -0.26761937 0.81721169 6.2448292e-39
0.46499872 -0.42442214 0.81821346 8.936128e-39
0.46078151 -0.42112923 0.81837428 7.4404871e-39
0.46241063 -0.42143667 0.81940138 6.6146837e-39
0.45768088 -0.41806823 0.81921506 7.8978709e-39
0.45876104 -0.41827089 0.81989735 7.8063941e-39
0.45660186 -0.41786575 0.81853342 7.8978709e-39
0.4540683 -0.41493142 0.8197096 7.8978709e-39
0.45230019 -0.4125551 0.8188951 6.4284987e-39
0.44962245 -0.40800351 0.81926161 6.2448278e-39
0.44671625 -0.4030301 0.81891674 6.2448278e-39
0.44399184 -0.39824629 0.81835622 6.2448278e-39
0.44446486 -0.39913046 0.81979394 6.2448278e-39
0.44180042 -0.39441586 0.81917274 6.2448278e-39
0.43962252 -0.39060909 0.81998426 6.2448278e-39
0.43914771 -0.38972187 0.81855422 6.2448278e-39
0.43671396 -0.38546354 0.81869304 6.2448278e-39
0.43425727 -0.38119358 0.8188802 6.2448278e-39
0.43162674 -0.37655044 0.81828648 6.2448278e-39
0.43207872 -0.3774178 0.81974071 6.2448278e-39
0.42997587 -0.37328768 0.81845063 6.2448278e-39
0.42833132 -0.3700375 0.81861413 6.2448278e-39
0.42669302 -0.36679965 0.81877708 6.2448278e-39
0.42506105 -0.36357421 0.81893933 6.2448278e-39
0.42343521 -0.36036104 0.81910104 6.2448278e-39
0.42186373 -0.35720497 0.81919575 6.2448278e-39
0.42031699 -0.35407788 0.81926364 6.2448278e-39
0.41965818 -0.35301244 0.81810582 6.2448278e-39
0.41851568 -0.35072154 0.81969219 6.2448278e-39
0.41786307 -0.34966213 0.81852967 6.2448278e-39
0.41607642 -0.3463276 0.81895155 6.2448278e-39
0.41376162 -0.3420555 0.81805128 6.2448278e-39
0.41429818 -0.34300876 0.81937146 6.2448278e-39
0.41199166 -0.33875191 0.81847268 6.2448278e-39
0.41252828 -0.33970547 0.81978941 6.2448278e-39
0.41022992 -0.33546382 0.81889206 6.2448278e-39
0.40847641 -0.33219105 0.81930947 6.2448278e-39
0.40648797 -0.32847872 0.81903386 6.2448278e-39
0.40461051 -0.32487279 0.81861103 6.2448278e-39
0.40298295 -0.32173461 0.81887817 6.3373807e-39
0.40158087 -0.31880218 0.81882668 6.3373807e-39
0.40227234 -0.31989473 0.81990594 6.891981e-39
0.40081057 -0.31667221 0.81890368 6.337022e-39
0.40004188 -0.31454629 0.81898081 6.337022e-39
0.3996197 -0.31297028 0.81959581 6.3377394e-39
0.39871883 -0.31109217 0.81882679 6.2451865e-39
0.39781809 -0.309214 0.81805843 6.2448278e-39
0.39808887 -0.3087377 0.8197481 6.5224866e-39
0.39718994 -0.3068639 0.81898046 6.2451865e-39
0.39642745 -0.30475539 0.81905663 6.5224866e-39
0.39587462 -0.30342972 0.81882727 6.337022e-39
0.39511439 -0.3013272 0.8189038 6.2451865e-39
0.39435571 -0.29922879 0.81898046 6.3373807e-39
0.39359832 -0.29713398 0.81905675 6.5224866e-39
0.39284241 -0.29504323 0.81913304 6.4295749e-39
0.38915724 -0.2921055 0.81939083 8.0044621e-39
0.39275688 -0.29317334 0.81926006 6.4295749e-39
0.39481002 -0.29119742 0.81830859 6.2448278e-39
0.39558405 -0.28995782 0.81925535 6.2448278e-39
0.39734316 -0.28891805 0.81875551 6.2448278e-39
0.39827484 -0.28840542 0.81947613 6.2448278e-39
0.3993679 -0.28774989 0.81892085 6.2448278e-39
0.40108982 -0.28674811 0.81884545 7.4480457e-39
0.40233886 -0.28606075 0.81980968 6.3370234e-39
0.40344372 -0.2853983 0.81925273 6.7997994e-39
0.4045527 -0.28473336 0.81869423 6.3370234e-39
0.40592289 -0.28394282 0.81880492 7.5402427e-39
0.40729678 -0.28315008 0.8189159 8.4657933e-39
0.4086746 -0.28235513 0.81902713 8.4654332e-39
0.4107489 -0.2811583 0.81919467 8.2803217e-39
0.41231835 -0.28020215 0.81801057 1.1336453e-38
0.41327149 -0.27967745 0.81874204 9.6690155e-39
0.41498503 -0.27869716 0.81909865 9.0207678e-39
0.41714802 -0.27742964 0.81883615 9.9466813e-39
0.41890335 -0.27646291 0.8191539 9.4835438e-39
0.41983342 -0.27591282 0.81993264 7.8179058e-39
0.42124346 -0.27540389 0.8190167 9.4842641e-39
0.42291754 -0.27446485 0.81981194 8.4654346e-39
0.42446756 -0.27373713 0.81975132 8.2806832e-39
0.42680347 -0.27264047 0.81965989 6.9852711e-39
0.4291501 -0.27153873 0.8195681 6.2448278e-39
0.43072176 -0.27080083 0.81950665 6.2448278e-39
0.4322989 -0.27006036 0.81944489 6.2448278e-39
0.43388158 -0.26931733 0.81938303 7.0749373e-39
0.43546981 -0.26857167 0.81932086 9.3801574e-39
0.43706357 -0.2678234 0.81925851 6.9827431e-39
0.43866289 -0.26707256 0.81919587 8.5619574e-39
0.46869147 0.082302585 0.81819624 1.1433294e-38
0.45984215 -0.41847372 0.82058024 7.4390507e-39
0.45514226 -0.41513187 0.82038915 7.8978709e-39
0.45675504 -0.41543278 0.82140988 7.438692e-39
0.45262259 -0.4122175 0.82155448 7.8978709e-39
0.45011103 -0.40890145 0.82068199 6.2448278e-39
0.44769514 -0.40482831 0.82174808 6.2448278e-39
0.44720614 -0.40392995 0.82033366 6.2448278e-39
0.44493693 -0.40001297 0.82122922 6.2448278e-39
0.44227391 -0.39530075 0.8206054 6.2448278e-39
0.44009656 -0.39149469 0.82141173 6.2448278e-39
0.43745804 -0.3868258 0.82079077 6.2448278e-39
0.4350464 -0.38259971 0.82091254 6.2448278e-39
0.43260747 -0.37835789 0.82108819 6.2448278e-39
0.430527 -0.37446845 0.82079756 6.2448278e-39
0.42888424 -0.3712216 0.82095635 6.2448278e-39
0.42743242 -0.36838239 0.82189244 6.2448278e-39
0.42706317 -0.36759192 0.82033658 6.2448278e-39
0.42543232 -0.36436874 0.82049567 6.2448278e-39
0.42437261 -0.36213398 0.82194024 6.2448278e-39
0.42384547 -0.36119318 0.82060248 6.2448278e-39
0.42265579 -0.35861912 0.82120156 6.2448278e-39
0.42147082 -0.35605508 0.8217988 6.2448278e-39
0.4209429 -0.35511231 0.82046497 6.2448278e-39
0.41994566 -0.35295451 0.82183957 6.2448278e-39
0.41923088 -0.35183835 0.82076621 6.2448278e-39
0.41743702 -0.34849632 0.82119006 6.2448278e-39
0.41672289 -0.34738106 0.82011867 6.2448278e-39
0.41529506 -0.34461316 0.82107753 6.2448278e-39
0.41316271 -0.34074736 0.82096571 6.2448278e-39
0.4110809 -0.33693573 0.82079577 6.2448278e-39
0.4096359 -0.33417588 0.8218047 6.2448278e-39
0.40901321 -0.33314508 0.8206194 6.2448278e-39
0.43019128 -0.33075386 0.82177222 1.0929167e-38
0.40726799 -0.32988775 0.82103151 6.2448278e-39
0.40553355 -0.326648 0.82143778 6.2448278e-39
0.40507245 -0.32576126 0.82002568 6.2448278e-39
0.40344548 -0.32262415 0.82028973 7.0770869e-39
0.40408123 -0.32366675 0.82144868 7.0767282e-39
0.40296328 -0.32098657 0.82098448 8.0933744e-39
0.40184706 -0.31831044 0.82052094 7.5387755e-39
0.40253747 -0.31940162 0.82159805 9.1100221e-39
0.4014228 -0.31672961 0.82113451 8.4635863e-39
0.40068063 -0.31495073 0.82082552 7.8171505e-39
0.39988804 -0.31248838 0.82128394 8.556498e-39
0.39933285 -0.31115812 0.82105219 8.1870036e-39
0.39856857 -0.30904564 0.82112741 8.3717494e-39
0.39767009 -0.3071726 0.82036054 7.4469386e-39
0.39704382 -0.3048318 0.82127643 8.7416025e-39
0.39614731 -0.30296308 0.82051092 7.8167918e-39
0.39538804 -0.30086404 0.82058579 7.9097035e-39
0.39497381 -0.29931358 0.82119489 8.7419612e-39
0.39353007 -0.2961331 0.82020152 7.8164344e-39
0.39421719 -0.29722226 0.82126921 9.2036512e-39
0.39345023 -0.29512486 0.82136035 9.3876796e-39
0.39270794 -0.29305094 0.82141727 7.3547458e-39
0.393397 -0.29140332 0.82109243 6.2448278e-39
0.39501649 -0.29035681 0.82113194 6.2448278e-39
0.39671764 -0.28936723 0.82106137 6.2448278e-39
0.39879012 -0.28815782 0.8208046 6.2448278e-39
0.40081686 -0.28698727 0.82097507 6.2448278e-39
0.40284908 -0.28581083 0.82114911 6.2448278e-39
0.4049494 -0.28458163 0.82089376 6.2448278e-39
0.4070622 -0.28334782 0.82063466 6.521772e-39
0.40874815 -0.28237852 0.82099575 6.521772e-39
0.40968561 -0.2818532 0.82173449 6.3370234e-39
0.41119221 -0.28095779 0.82098365 6.5221321e-39
0.4124468 -0.28025478 0.82197088 6.3370234e-39
0.41333449 -0.27970594 0.82072449 6.7068821e-39
0.41472524 -0.2789008 0.82084167 6.7068821e-39
0.41611981 -0.27809346 0.82095927 6.7068821e-39
0.41749913 -0.27726954 0.82110375 6.7068835e-39
0.41886246 -0.27642888 0.82127595 6.7068821e-39
0.42091459 -0.27516353 0.82153505 6.615048e-39
0.42300427 -0.27391577 0.8217535 6.7997994e-39
0.42455155 -0.27318841 0.82169634 6.891995e-39
0.42610425 -0.27245861 0.82163894 6.707245e-39
0.42766231 -0.27172619 0.82158136 6.3373849e-39
0.42922574 -0.27099127 0.82152361 6.2448278e-39
0.4307946 -0.27025384 0.82146567 6.2448278e-39
0.43315887 -0.26914248 0.82137823 6.7983533e-39
0.43553412 -0.26802599 0.82129049 9.1039334e-39
0.43712497 -0.26727819 0.82123166 6.7979945e-39
0.45369226 -0.41241598 0.82223272 7.8978709e-39
0.454763 -0.41261464 0.82291156 7.0713486e-39
0.45089263 -0.40965959 0.82274365 7.255021e-39
0.44818336 -0.405725 0.82316005 6.2448278e-39
0.44540817 -0.40089393 0.82266182 6.2448278e-39
0.44298247 -0.39662486 0.82274914 6.2448278e-39
0.4405697 -0.39237869 0.82283658 6.2448278e-39
0.43840617 -0.38859671 0.8236329 6.2448278e-39
0.43793255 -0.38771206 0.82221311 6.2448278e-39
0.43578184 -0.38395268 0.82300955 6.2448278e-39
0.43364429 -0.38021624 0.82380116 6.2448278e-39
0.43313539 -0.37929654 0.82243365 6.2448278e-39
0.43107647 -0.37564552 0.82313722 6.2448278e-39
0.42943549 -0.37240207 0.8232913 6.2448278e-39
0.42781758 -0.36918688 0.82342213 6.2448278e-39
0.42635608 -0.36612558 0.82334894 6.2448278e-39
0.42583007 -0.36518711 0.82201135 6.2448278e-39
0.42489898 -0.36307341 0.82327592 6.2448278e-39
0.42344618 -0.36003035 0.82320315 6.2448278e-39
0.42199779 -0.35699636 0.82313061 6.2448278e-39
0.42055362 -0.35397142 0.82305825 6.2448278e-39
0.41886377 -0.35072464 0.82333082 6.2448278e-39
0.4181506 -0.34961081 0.82226074 6.2448278e-39
0.41672003 -0.34683901 0.82321364 6.2448278e-39
0.41458589 -0.34297067 0.82309711 6.2448278e-39
0.41387451 -0.34185934 0.82203174 6.2448278e-39
0.41246092 -0.33911914 0.822981 6.2448278e-39
0.41105455 -0.33639276 0.82392567 6.2448278e-39
0.43446812 -0.33782867 0.823901 1.1944024e-38
0.41034544 -0.33528465 0.82286555 6.2448278e-39
0.4085933 -0.33202034 0.8232795 6.2448278e-39
0.4078849 -0.33091319 0.82222128 6.2448278e-39
0.40684932 -0.32877129 0.82369149 6.2448278e-39
0.406142 -0.32766569 0.82263589 6.2448278e-39
0.40497035 -0.32517222 0.82327497 6.3373807e-39
0.4036538 -0.32207763 0.82206225 9.1103808e-39
0.40424359 -0.32307905 0.82328272 8.4632276e-39
0.403175 -0.32044584 0.82274967 1.0219939e-38
0.40267372 -0.31879723 0.82346928 1.0958928e-38
0.40160817 -0.31617177 0.82293707 1.0405045e-38
0.40210778 -0.3178159 0.82221723 9.9426386e-39
0.40110987 -0.3145318 0.82365507 8.838456e-39
0.40054393 -0.31354952 0.82240558 8.9288594e-39
0.39955205 -0.31028277 0.82384014 7.547734e-39
0.40004736 -0.31191403 0.82312375 8.2845732e-39
0.39898616 -0.30929953 0.82259315 8.6526341e-39
0.39792633 -0.30668831 0.82206321 9.0206949e-39
0.39849252 -0.30767262 0.82330978 8.0083479e-39
0.39743435 -0.30506575 0.82278001 8.3767674e-39
0.39666051 -0.30295476 0.822873 8.192379e-39
0.39588839 -0.30084813 0.82296622 8.192379e-39
0.39511752 -0.29874521 0.82305884 8.3771248e-39
0.39434832 -0.2966466 0.82315171 1.0867449e-38
0.39358044 -0.29455164 0.82324398 1.0682343e-38
0.39298183 -0.29260057 0.82308936 6.7068751e-39
0.39356771 -0.2915549 0.82326281 6.3366646e-39
0.39444238 -0.29074574 0.82301366 6.2448278e-39
0.3957755 -0.28997409 0.82313132 6.2448278e-39
0.3975313 -0.2889407 0.82263875 6.2448278e-39
0.39845264 -0.28842443 0.82336766 6.2448278e-39
0.39954579 -0.28777459 0.82281566 6.2448278e-39
0.40126076 -0.28677616 0.82274914 6.2448278e-39
0.40249598 -0.28608412 0.82372451 6.2448278e-39
0.40360081 -0.28542739 0.8231709 6.2448278e-39
0.40495992 -0.2846407 0.82328993 6.2448278e-39
0.40675634 -0.28358358 0.82279384 6.2448278e-39
0.40881038 -0.28239459 0.82297242 6.2448278e-39
0.41087389 -0.28120008 0.82315183 6.2448292e-39
0.41294509 -0.28000116 0.82333189 6.2448278e-39
0.41383314 -0.2794522 0.82208955 6.3370234e-39
0.41508341 -0.27874076 0.8230896 6.2448278e-39
0.41720033 -0.27745011 0.82289094 6.2448278e-39
0.41886321 -0.27642426 0.82333159 6.2448278e-39
0.42068344 -0.27530324 0.82288003 6.2451879e-39
0.42205316 -0.27445865 0.82305485 6.2451879e-39
0.42342645 -0.27361178 0.82323009 6.2451879e-39
0.42480344 -0.27276272 0.82340574 6.2448292e-39
0.42696276 -0.27154636 0.8235532 6.2448292e-39
0.42930114 -0.27044588 0.82347178 6.2448278e-39
0.4308672 -0.26970887 0.82341731 6.2448278e-39
0.43243873 -0.26896924 0.82336259 6.2448278e-39
0.43401575 -0.2682271 0.82330775 7.9046868e-39
0.43559819 -0.26748234 0.82325268 8.8269906e-39
0.43718618 -0.26673502 0.82319742 8.7463459e-39
0.44869906 -0.40664828 0.82453322 7.0713486e-39
0.44634813 -0.40265095 0.8255192 6.2448278e-39
0.44587862 -0.40177327 0.82409179 6.2448278e-39
0.44368923 -0.39794576 0.82488769 6.2448278e-39
0.44151336 -0.39414185 0.82567865 6.2448278e-39
0.44104201 -0.39326108 0.82425892 6.2448278e-39
0.43887895 -0.38947982 0.82505012 6.2448278e-39
0.43649259 -0.38527986 0.82513034 6.2448278e-39
0.43411887 -0.3811022 0.82521087 6.2448278e-39
0.43149775 -0.37648153 0.82461733 6.2448278e-39
0.4320786 -0.37746942 0.82588136 6.2448278e-39
0.42980796 -0.37319243 0.824835 6.2448278e-39
0.4283424 -0.37012291 0.82475966 6.2448278e-39
0.42688131 -0.36706257 0.82468444 6.2448278e-39
0.4256869 -0.3644796 0.8252753 6.2448278e-39
0.42397213 -0.36096925 0.82453483 6.2448278e-39
0.42449719 -0.36190671 0.82586443 6.2448278e-39
0.42304939 -0.35887462 0.82578802 6.2448278e-39
0.42252398 -0.3579362 0.82446039 6.2448278e-39
0.42134306 -0.35538185 0.82504892 6.2448278e-39
0.42016673 -0.35283738 0.82563591 6.2448278e-39
0.41957653 -0.35183781 0.82440019 6.2448278e-39
0.41778767 -0.34850675 0.82481402 6.2448278e-39
0.41849887 -0.3496176 0.82588011 6.2448278e-39
0.41529673 -0.34408128 0.82416189 6.2448278e-39
0.41600722 -0.3451913 0.82522595 6.2448278e-39
0.41352582 -0.34078306 0.82457447 6.2448278e-39
0.41423517 -0.34189141 0.82563591 6.2448278e-39
0.41176319 -0.33750021 0.82498515 6.2448278e-39
0.41000879 -0.33423275 0.82539392 6.2448278e-39
0.40930122 -0.3331269 0.82433701 6.2448278e-39
0.40823925 -0.33095956 0.82583368 6.2448278e-39
0.40755612 -0.32987624 0.82474649 6.2448278e-39
0.40565223 -0.32649177 0.82539099 6.2448278e-39
0.4045049 -0.32318518 0.82496881 8.2788391e-39
0.40377203 -0.32109103 0.82498521 1.1144032e-38
0.42651004 -0.32102311 0.824386 8.0840544e-39
0.40298876 -0.31895503 0.82507741 1.1421691e-38
0.40217376 -0.31715292 0.82418698 1.1329138e-38
0.40167511 -0.31551284 0.82490289 1.0130253e-38
0.40089527 -0.31338653 0.82499409 7.3637029e-39
0.40011716 -0.31126469 0.82508546 6.9030905e-39
0.39934033 -0.30914649 0.8251763 6.9027318e-39
0.39828265 -0.30654129 0.82464594 7.0871202e-39
0.39750904 -0.30443132 0.82473743 6.994926e-39
0.39807367 -0.30541396 0.82597822 6.6265064e-39
0.39701915 -0.30281687 0.82544857 6.7187021e-39
0.39596593 -0.30022305 0.82491952 6.994926e-39
0.39645416 -0.30183315 0.8242082 7.0871202e-39
0.39547896 -0.29861706 0.82562906 7.6406457e-39
0.39467138 -0.29683164 0.82474607 1.0407553e-38
0.39394462 -0.29443324 0.82580888 8.7405277e-39
0.39356485 -0.29300529 0.82430172 7.0763695e-39
0.394265 -0.29291129 0.82534039 6.3366646e-39
0.39759508 -0.2920565 0.82595491 6.4295763e-39
0.39510983 -0.2908864 0.82513684 6.2448278e-39
0.39689049 -0.28937414 0.82494879 6.2448278e-39
0.39853472 -0.28842816 0.82531142 6.2448278e-39
0.4009715 -0.28700075 0.82488549 6.2448278e-39
0.40299612 -0.28582889 0.82506686 6.2448278e-39
0.40503013 -0.28465167 0.82524908 6.2448278e-39
0.40719438 -0.28337601 0.8245737 6.2448278e-39
0.40887335 -0.28240997 0.82494009 6.2448278e-39
0.40980715 -0.28188676 0.82567698 6.2448278e-39
0.41093192 -0.2812185 0.82512355 6.2448278e-39
0.41230944 -0.28042114 0.8252461 6.2448278e-39
0.41344249 -0.27974802 0.82469064 6.2448278e-39
0.41480041 -0.27892536 0.8248511 6.2448278e-39
0.41615111 -0.2780925 0.82502699 6.2448278e-39
0.41750532 -0.27725744 0.8252033 6.2448278e-39
0.418863 -0.27642024 0.82538003 6.2448278e-39
0.41977113 -0.27586299 0.82413286 6.2448278e-39
0.42098323 -0.27511373 0.82520038 6.2448278e-39
0.42250568 -0.27417684 0.82448536 6.2448278e-39
0.42341778 -0.27361298 0.8252877 6.2448278e-39
0.42525446 -0.2724818 0.82483965 6.2448278e-39
0.42663425 -0.271631 0.82501751 6.2448278e-39
0.42801768 -0.27077788 0.82519585 6.2448278e-39
0.42940474 -0.26992261 0.82537466 6.2448278e-39
0.43093956 -0.26916593 0.82536173 6.2448278e-39
0.43250823 -0.26842678 0.82531053 6.2448278e-39
0.43487221 -0.26731285 0.8252334 8.3660181e-39
0.44969416 -0.40719265 0.82731599 7.0713486e-39
0.447299 -0.40400231 0.82632643 6.2448278e-39
0.44849098 -0.40559155 0.82682687 7.0713486e-39
0.44719338 -0.40284458 0.82747352 6.2448278e-39
0.44548219 -0.40053904 0.82663232 6.2448278e-39
0.44457769 -0.39881429 0.82678306 6.2448278e-39
0.44367546 -0.39709312 0.82693416 6.2448278e-39
0.44277498 -0.395376 0.8270843 6.2448278e-39
0.44131413 -0.39290392 0.82695174 6.2448278e-39
0.43962783 -0.39063048 0.82610351 6.2448278e-39
0.44008589 -0.39024681 0.82753396 6.2448278e-39
0.43896431 -0.38873535 0.82696903 6.2448278e-39
0.43784428 -0.38722581 0.82640481 6.2448278e-39
0.43830293 -0.38684613 0.8278318 6.2448278e-39
0.43718499 -0.38534015 0.82726794 6.2448278e-39
0.43495327 -0.38233387 0.82614237 6.2448278e-39
0.43606842 -0.38383609 0.8267048 6.2448278e-39
0.43485683 -0.38121048 0.82728457 6.2448278e-39
0.43341911 -0.37877929 0.82715201 6.2448278e-39
0.43254 -0.37710094 0.82730085 6.2448278e-39
0.43082473 -0.37481326 0.82653224 6.2448278e-39
0.42945749 -0.37205505 0.82733798 6.2448278e-39
0.42886651 -0.37105745 0.82609504 6.2448278e-39
0.42792922 -0.36893219 0.82734942 6.2448278e-39
0.42740566 -0.36799806 0.82601798 6.2448278e-39
0.42647314 -0.36588293 0.82727057 6.2448278e-39
0.42502141 -0.36284274 0.82719207 6.2448278e-39
0.42357397 -0.35981154 0.82711375 6.2448278e-39
0.42213082 -0.35678941 0.82703567 6.2448278e-39
0.42069197 -0.35377616 0.82695782 6.2448278e-39
0.4192096 -0.3507278 0.82694554 6.2448278e-39
0.41707209 -0.34685487 0.82682079 6.2448278e-39
0.41565263 -0.34410608 0.82775694 6.2448278e-39
0.41494411 -0.3429991 0.82669675 6.2448278e-39
0.41282532 -0.33916005 0.82657313 6.2448278e-39
0.41142255 -0.33644241 0.82750583 6.2448278e-39
0.41071588 -0.33533794 0.82645017 6.2448278e-39
0.40891856 -0.33203912 0.82692468 6.2448278e-39
0.40700907 -0.32864833 0.82756728 6.2448278e-39
0.40633088 -0.32757044 0.82647955 6.2448278e-39
0.40530968 -0.32521668 0.8269012 6.2448278e-39
0.40466017 -0.32319701 0.82679945 8.3706746e-39
0.40420341 -0.32158893 0.82744789 1.1051839e-38
0.40330267 -0.31911135 0.82668191 1.1606079e-38
0.45799389 -0.31921068 0.82615489 1.1114633e-38
0.40252134 -0.3169817 0.82677138 1.142205e-38
0.40174168 -0.31485647 0.82686108 8.6555011e-39
0.40096337 -0.31273496 0.82695019 6.9949246e-39
0.40018672 -0.3106178 0.8270396 6.7187021e-39
0.39941132 -0.3085044 0.82712835 6.9027304e-39
0.39863759 -0.30639529 0.82721734 6.9030905e-39
0.39814693 -0.30478048 0.82792437 7.4558985e-39
0.39733893 -0.30299407 0.82704091 6.9027304e-39
0.39653057 -0.30120659 0.82615781 6.5343122e-39
0.39604312 -0.29960042 0.82686532 6.994926e-39
0.39527515 -0.29750675 0.82695389 9.669639e-39
0.39480972 -0.29464862 0.82728893 7.1685637e-39
0.39531434 -0.29277042 0.82689703 6.3366646e-39
0.39648741 -0.29068112 0.82724738 6.3366646e-39
0.45218381 -0.29154363 0.82618064 1.0293504e-38
0.3972801 -0.28920525 0.82712597 6.2448278e-39
0.39861554 -0.28843236 0.82724911 6.2448278e-39
0.39970478 -0.28778502 0.82670617 6.2448278e-39
0.4010478 -0.28700775 0.82682914 6.2448278e-39
0.40239447 -0.28622839 0.8269524 6.2448278e-39
0.40374485 -0.28544688 0.82707602 6.2448278e-39
0.40509894 -0.28466323 0.82719994 6.2448278e-39
0.40620786 -0.28400433 0.82665354 6.2448278e-39
0.4071376 -0.28348339 0.82738614 6.2448278e-39
0.40893507 -0.28242594 0.82690144 6.2448278e-39
0.41099083 -0.28123611 0.8270883 6.2448278e-39
0.41302127 -0.28001696 0.82732153 6.2448278e-39
0.41390884 -0.27947241 0.82608908 6.2448278e-39
0.41510949 -0.27873018 0.8271482 6.2448278e-39
0.41720772 -0.2774373 0.82697439 6.2448278e-39
0.41931587 -0.27613819 0.82680011 6.2448278e-39
0.42067641 -0.27529925 0.82697904 6.2448278e-39
0.42204046 -0.27445811 0.82715839 6.2448278e-39
0.42340809 -0.27361476 0.82733822 6.2448278e-39
0.4249377 -0.27267343 0.82662708 6.2448278e-39
0.42692336 -0.27144805 0.82734346 6.2448278e-39
0.42846644 -0.27049839 0.82663047 6.2448278e-39
0.42985272 -0.26964355 0.82681096 6.2448278e-39
0.43124264 -0.26878643 0.82699192 6.2448278e-39
0.43263632 -0.26792711 0.82717335 6.2448278e-39
0.43493724 -0.26677305 0.82717925 9.2015423e-39
0.45256704 -0.41000503 0.82972926 6.2448278e-39
0.45136064 -0.40840071 0.82923788 6.2448278e-39
0.45015627 -0.40679884 0.82874727 6.2448278e-39
0.44918466 -0.40500385 0.82897151 6.2448278e-39
0.44824177 -0.40323865 0.82916272 6.2448278e-39
0.44593728 -0.40014392 0.82807046 6.2448278e-39
0.44708359 -0.40168524 0.8286227 6.2448278e-39
0.4452607 -0.39822483 0.82893699 6.2448278e-39
0.44639862 -0.39975643 0.82949686 6.2448278e-39
0.44435871 -0.39650694 0.82908487 6.2448278e-39
0.44345897 -0.39479268 0.82923305 6.2448278e-39
0.44233316 -0.39327544 0.82866597 6.2448278e-39
0.44143701 -0.39156786 0.82881367 6.2448278e-39
0.43942225 -0.38835406 0.82839644 6.2448278e-39
0.440543 -0.38986385 0.82896173 6.2448278e-39
0.43931994 -0.38722029 0.8295387 6.2448278e-39
0.43764347 -0.3849628 0.82869202 6.2448278e-39
0.43675694 -0.38327286 0.82883894 6.2448278e-39
0.43531638 -0.38083792 0.82870495 6.2448278e-39
0.43466428 -0.37897152 0.82956028 6.2448278e-39
0.4330005 -0.37673306 0.82871777 6.2448278e-39
0.43162733 -0.37498987 0.82850897 6.2448278e-39
0.43041041 -0.37299582 0.82910895 6.2448278e-39
0.42906028 -0.37065992 0.82888055 6.2448278e-39
0.42780906 -0.36802316 0.82953614 6.2448278e-39
0.42699629 -0.36681658 0.82859802 6.2448278e-39
0.4261359 -0.36477476 0.82974958 6.2448278e-39
0.42554486 -0.36377728 0.82851756 6.2448278e-39
0.42435923 -0.3612141 0.82909817 6.2448278e-39
0.42317826 -0.35866082 0.82967705 6.2448278e-39
0.42265493 -0.3577258 0.8283574 6.2448278e-39
0.42147821 -0.35518149 0.82893652 6.2448278e-39
0.42030609 -0.35264695 0.82951403 6.2448278e-39
0.4141978 -0.35021773 0.8288669 1.1483051e-38
0.4197821 -0.35171014 0.82819808 6.2448278e-39
0.41849047 -0.34907073 0.82894504 6.2448278e-39
0.41706824 -0.34631807 0.82987535 6.2448278e-39
0.41636068 -0.34521246 0.82881647 6.2448278e-39
0.41388661 -0.34081852 0.82815981 6.2448278e-39
0.41459352 -0.34192324 0.82921672 6.2448278e-39
0.41283458 -0.33864939 0.82961512 6.2448278e-39
0.41212881 -0.33754623 0.82856083 6.2448278e-39
0.4102757 -0.33419591 0.82910419 6.2448278e-39
0.4095974 -0.33311796 0.82801479 6.2448278e-39
0.40836388 -0.33080167 0.82974035 6.2448278e-39
0.40768671 -0.32972538 0.82865417 6.2448278e-39
0.40588379 -0.32643819 0.82915306 6.2448278e-39
0.40523478 -0.32442069 0.82904923 6.3373807e-39
0.40458685 -0.32240617 0.82894641 9.5727869e-39
0.40413117 -0.32080263 0.82959092 9.8497269e-39
0.40352038 -0.31918427 0.82841766 1.1144391e-38
0.40283948 -0.31678712 0.82938427 1.0497598e-38
0.40180808 -0.31420267 0.82881165 8.6537089e-39
0.40230501 -0.3158347 0.82810354 1.0683778e-38
0.40131247 -0.3125748 0.82951796 8.0061983e-39
0.40074992 -0.31159699 0.82827955 7.6399283e-39
0.39976329 -0.30835414 0.82969075 7.7285394e-39
0.40025598 -0.30997348 0.82898605 8.192379e-39
0.3992008 -0.30737537 0.82845485 7.8239594e-39
0.3984648 -0.30495489 0.8295114 7.7288981e-39
0.39765757 -0.30316979 0.82862955 8.0083479e-39
0.3997795 -0.30208242 0.82985002 6.7075926e-39
0.39688799 -0.30107284 0.8287164 7.8228832e-39
0.39612013 -0.29898018 0.82880354 8.4689617e-39
0.3954142 -0.29663059 0.82914305 8.2788391e-39
0.39542258 -0.29516405 0.82879019 6.3366646e-39
0.3960079 -0.29412293 0.8289659 6.3366646e-39
0.39671212 -0.29258275 0.82897055 6.3366646e-39
0.39753643 -0.29054117 0.82880408 6.3366646e-39
0.39789349 -0.28904206 0.82828957 6.3366646e-39
0.39868736 -0.28902504 0.82919198 6.2448278e-39
0.39961368 -0.2879225 0.82990468 6.2448278e-39
0.40112495 -0.28701413 0.82876593 6.2448278e-39
0.40314215 -0.28584677 0.82895452 6.2448278e-39
0.40516856 -0.28467411 0.829144 6.2448278e-39
0.40720242 -0.28349715 0.82933414 6.2448278e-39
0.40868732 -0.28261504 0.82860941 6.2448278e-39
0.40992713 -0.28191948 0.82958996 6.2448278e-39
0.41102928 -0.28123975 0.82907128 6.2448278e-39
0.41236484 -0.28041765 0.82924962 6.2448278e-39
0.41347587 -0.2797339 0.82872796 6.2448278e-39
0.41481757 -0.27890658 0.82890785 6.2448278e-39
0.41616279 -0.27807707 0.82908827 6.2448278e-39
0.4175114 -0.27724546 0.82926911 6.2448278e-39
0.41863754 -0.27655235 0.82874388 6.2448278e-39
0.41976792 -0.27585673 0.82821745 6.2448278e-39
0.420975 -0.27511048 0.82928157 6.2448278e-39
0.42249107 -0.27417743 0.82857907 6.2448278e-39
0.42339942 -0.27361596 0.82937884 6.2448278e-39
0.42522848 -0.27248949 0.8289426 6.2448278e-39
0.4272913 -0.27121747 0.82921654 6.2448278e-39
0.42891431 -0.27021945 0.8280623 6.2448278e-39
0.42010215 -0.26912495 0.82983357 1.1487008e-38
0.42936134 -0.26994097 0.82949144 6.6121711e-39
0.43092403 -0.26899543 0.82876605 6.3366632e-39
0.43233901 -0.26837301 0.8295902 7.1631855e-39
0.43349108 -0.26764005 0.82908213 8.7312077e-39
0.43504879 -0.26688933 0.82905591 1.103571e-38
0.45741147 -0.41644794 0.83170241 5.7038915e-39
0.45619744 -0.41483337 0.83120799 6.9874305e-39
0.45498544 -0.41322142 0.83071429 6.2448278e-39
0.45377523 -0.41161191 0.83022141 6.2448278e-39
0.45423424 -0.41121352 0.83165205 6.2448278e-39
0.45182115 -0.40800577 0.83066726 6.2448278e-39
0.45302671 -0.40960836 0.83115923 6.2448278e-39
0.45084763 -0.40620953 0.83088899 6.2448278e-39
0.44987667 -0.40441751 0.83111095 6.2448278e-39
0.44894651 -0.40266785 0.83128297 6.2448278e-39
0.44755447 -0.40130609 0.83003658 6.2448278e-39
0.44802445 -0.40092766 0.83144784 6.2448278e-39
0.44686931 -0.39937967 0.83090764 6.2448278e-39
0.44571579 -0.39783376 0.83036816 6.2448278e-39
0.4461863 -0.39745927 0.83177602 6.2448278e-39
0.44391388 -0.39440477 0.83066195 6.2448278e-39
0.44504029 -0.39592218 0.83123016 6.2448278e-39
0.44301617 -0.39269641 0.83080745 6.2448278e-39
0.44212073 -0.39099163 0.8309533 6.2448278e-39
0.44122702 -0.38929081 0.8310982 6.2448278e-39
0.43921763 -0.38608891 0.83067799 6.2448278e-39
0.44033545 -0.38759351 0.83124334 6.2448278e-39
0.43832958 -0.38439822 0.83082271 6.2448278e-39
0.43744367 -0.38271099 0.83096784 6.2448278e-39
0.43655953 -0.3810277 0.83111197 6.2448278e-39
0.43567753 -0.37934786 0.83125639 6.2448278e-39
0.43337196 -0.37628192 0.83024794 6.2448278e-39
0.43456817 -0.37785596 0.8306939 6.2448278e-39
0.43193609 -0.37448061 0.83012164 6.2448278e-39
0.43367857 -0.37577087 0.83185858 6.2448278e-39
0.43081355 -0.37217945 0.83160204 6.2448278e-39
0.432244 -0.37397259 0.83173013 6.2448278e-39
0.42952031 -0.37051737 0.83129799 6.2448278e-39
0.42866462 -0.36927021 0.83041704 6.2448278e-39
0.42741662 -0.36664146 0.83106828 6.2448278e-39
0.42617363 -0.36402321 0.8317169 6.2448278e-39
0.42532152 -0.36278129 0.83083951 6.2448278e-39
0.42451036 -0.36079568 0.83192509 6.2448278e-39
0.42370075 -0.3595944 0.83099478 6.2448278e-39
0.42226285 -0.35658395 0.83091122 6.2448278e-39
0.42082924 -0.35358238 0.83082795 6.2448278e-39
0.4193998 -0.35058963 0.83074492 6.2448278e-39
0.43471462 -0.35112116 0.8315019 1.2693123e-38
0.41848218 -0.34852743 0.8319912 6.2448278e-39
0.41777551 -0.34742308 0.83093357 6.2448278e-39
0.41600615 -0.34413075 0.83132863 6.2448278e-39
0.41530001 -0.34302729 0.83027303 6.2448278e-39
0.41423362 -0.34084338 0.83173746 6.2448278e-39
0.41354001 -0.3397519 0.83066881 6.2448278e-39
0.41163087 -0.33634955 0.83128047 6.2448278e-39
0.41095358 -0.33527315 0.83019269 6.2448278e-39
0.40971673 -0.3329519 0.83191013 6.2448278e-39
0.40904057 -0.33187717 0.83082563 6.2448278e-39
0.40713805 -0.32849985 0.83145505 6.2448278e-39
0.40646255 -0.32742608 0.83037293 6.2448278e-39
0.40557945 -0.32483795 0.83161294 6.2448278e-39
0.40496939 -0.32322156 0.83044165 6.891981e-39
0.40428656 -0.32081944 0.83140391 6.7072338e-39
0.40367663 -0.3192029 0.83023387 8.8330807e-39
0.40299684 -0.3168107 0.83119535 7.1692812e-39
0.40237021 -0.31517941 0.83005047 8.5579315e-39
0.40187424 -0.31355143 0.83075464 7.0792365e-39
0.40109873 -0.31143937 0.83083975 6.8937719e-39
0.40032494 -0.3093316 0.83092505 6.7093848e-39
0.39955243 -0.30722755 0.83100981 6.7086674e-39
0.39878154 -0.3051278 0.83109486 6.5235614e-39
0.39773136 -0.30254269 0.83056438 6.8944893e-39
0.3982926 -0.30352086 0.83179414 6.3373807e-39
0.39724404 -0.30093998 0.8312639 6.3380982e-39
0.39654574 -0.29922143 0.83091021 6.8012189e-39
0.39599669 -0.29700607 0.83102262 6.3370234e-39
0.39623278 -0.2960149 0.83068246 6.3366646e-39
0.39681768 -0.29497492 0.83085841 6.3366646e-39
0.39752194 -0.29343745 0.83086491 6.3366646e-39
0.39833808 -0.29284632 0.83172911 6.3366646e-39
0.39787823 -0.29194421 0.83035356 6.3366646e-39
0.39850211 -0.29121721 0.83081627 6.3366646e-39
0.39952141 -0.28930956 0.83105427 6.3366646e-39
0.400877 -0.28726849 0.83081675 6.2448278e-39
0.40254241 -0.28624469 0.83082277 6.2448278e-39
0.40363955 -0.28559291 0.83028632 6.2448278e-39
0.40486991 -0.28490356 0.83125859 6.2448278e-39
0.40634179 -0.28402925 0.83054256 6.2448278e-39
0.40726796 -0.28351033 0.83127338 6.2448278e-39
0.40905541 -0.28245437 0.83080494 6.2448278e-39
0.4110471 -0.28122613 0.83107716 6.2448278e-39
0.41348764 -0.27972257 0.83074105 6.2448278e-39
0.41512537 -0.27871218 0.83118749 6.2448278e-39
0.41721499 -0.27742454 0.83102435 6.2448278e-39
0.4193145 -0.2761308 0.83086073 6.2448278e-39
0.42066944 -0.27529526 0.8310442 6.2448278e-39
0.42202789 -0.27445763 0.83122808 6.4284987e-39
0.42339122 -0.27361876 0.83141053 6.6121711e-39
0.42496777 -0.27271965 0.83064061 6.5203342e-39
0.4264527 -0.27216631 0.83134472 7.07135e-39
0.4275302 -0.27140662 0.83091724 6.7958421e-39
0.42907304 -0.27067423 0.83088338 7.07135e-39
0.43207294 -0.2700721 0.83195496 7.8060354e-39
0.43098435 -0.26968363 0.83070588 7.07135e-39
0.43323171 -0.26903632 0.8311035 8.1758885e-39
0.43486789 -0.26866287 0.83130825 1.2970001e-38
0.43706685 -0.26806366 0.83145761 7.8982296e-39
0.43495101 -0.26777226 0.83019263 1.3984498e-38
0.43600839 -0.26791787 0.83082485 8.5439494e-39
0.45923626 -0.41887483 0.83244568 5.7038915e-39
0.4578681 -0.41604406 0.83313519 6.2448278e-39
0.45908326 -0.41765928 0.8336311 6.2448278e-39
0.45665497 -0.41443133 0.83263999 6.2448278e-39
0.45567229 -0.41262135 0.83286005 6.2448278e-39
0.45469236 -0.41081572 0.83308017 6.2448278e-39
0.45348561 -0.40921241 0.83258665 6.2448278e-39
0.45251015 -0.40741488 0.83280605 6.2448278e-39
0.45093837 -0.40482587 0.83277798 6.2448278e-39
0.44964957 -0.40209836 0.8333981 6.2448278e-39
0.45080721 -0.40364903 0.83394027 6.2448278e-39
0.4484936 -0.40054989 0.83285666 6.2448278e-39
0.44757369 -0.39881578 0.83301884 6.2448278e-39
0.44665611 -0.39708543 0.83318126 6.2448278e-39
0.44493672 -0.39478123 0.83236492 6.2448278e-39
0.44369751 -0.39211881 0.83294368 6.2448278e-39
0.4448269 -0.3936367 0.83350444 6.2448278e-39
0.44280231 -0.39041725 0.83308631 6.2448278e-39
0.44190931 -0.3887192 0.8332293 6.2448278e-39
0.44079083 -0.3872143 0.83266288 6.2448278e-39
0.43967366 -0.38571131 0.83209717 6.2448278e-39
0.44012892 -0.38533449 0.83351362 6.2448278e-39
0.43790042 -0.38233739 0.83238363 6.2448278e-39
0.43901402 -0.38383502 0.83294827 6.2448278e-39
0.43724489 -0.3804704 0.83323246 6.2448278e-39
0.43835634 -0.38196445 0.83379674 6.2448278e-39
0.43613487 -0.37897813 0.83266884 6.2448278e-39
0.43522388 -0.37727466 0.83285099 6.2448278e-39
0.43398428 -0.37526119 0.8334651 6.2448278e-39
0.43255121 -0.37346596 0.83333457 6.2448278e-39
0.43112212 -0.37167573 0.83320433 6.2448278e-39
0.42919728 -0.36919948 0.83273083 6.2448278e-39
0.42787796 -0.36650723 0.83347201 6.2448278e-39
0.42702574 -0.36526513 0.83259445 6.2448278e-39
0.42536074 -0.36203504 0.83280087 6.2448278e-39
0.42621124 -0.36327451 0.83367664 6.2448278e-39
0.42455107 -0.36005473 0.83388042 6.2448278e-39
0.42370242 -0.35881788 0.83300644 6.2448278e-39
0.42285383 -0.35758114 0.83213246 6.2448278e-39
0.42135155 -0.35451633 0.83213985 6.2448278e-39
0.42205077 -0.35561365 0.83321118 6.2448278e-39
0.42044437 -0.352458 0.833363 6.2448278e-39
0.41992247 -0.35152453 0.83205497 6.2448278e-39
0.41901976 -0.34947586 0.83327651 6.2448278e-39
0.41741693 -0.34633553 0.83343804 6.2448278e-39
0.41671175 -0.34523344 0.83238363 6.2448278e-39
0.41558808 -0.34299564 0.83391541 6.2448278e-39
0.41491115 -0.34191996 0.83282685 6.2448278e-39
0.41298407 -0.33850002 0.83345348 6.2448278e-39
0.41230768 -0.33742517 0.83236736 6.2448278e-39
0.4103924 -0.3340258 0.83299387 6.2448278e-39
0.40848756 -0.33064502 0.83361691 6.2448278e-39
0.40781307 -0.32957286 0.83253634 6.2448278e-39
0.40618849 -0.32645166 0.83278334 6.2448278e-39
0.40573204 -0.32484692 0.83342195 6.2448278e-39
0.4048956 -0.32243329 0.832573 6.2448278e-39
0.40444112 -0.32083523 0.83321106 6.2448278e-39
0.40379682 -0.31883278 0.83310544 6.2448278e-39
0.40315342 -0.31683326 0.83300072 6.2448278e-39
0.40251064 -0.31483573 0.83289534 6.2451865e-39
0.40186888 -0.312841 0.83279085 6.2448278e-39
0.40115273 -0.3107838 0.8327921 6.2451865e-39
0.40039366 -0.30869222 0.83285654 6.2448278e-39
0.46245164 -0.30847883 0.83348662 1.012424e-38
0.39962259 -0.30659282 0.83293933 6.2448278e-39
0.39885312 -0.30449778 0.83302236 6.2448278e-39
0.39836502 -0.30289465 0.83371788 6.2448278e-39
0.45937103 -0.30367303 0.83327705 9.6549829e-39
0.39756164 -0.30111855 0.83283961 6.2448278e-39
0.39691645 -0.29879433 0.83376241 6.2448278e-39
0.45630902 -0.29889607 0.83306867 1.011416e-38
0.39692301 -0.29735872 0.83273983 6.2448278e-39
0.39774445 -0.29532987 0.83257818 6.3366646e-39
0.3984406 -0.29523557 0.83361018 6.3366646e-39
0.39891607 -0.29324979 0.83293259 6.3366646e-39
0.39958528 -0.29139385 0.83265477 6.3366646e-39
0.40020937 -0.29066736 0.8331182 6.3366646e-39
0.40091717 -0.28912392 0.83312607 6.3366646e-39
0.40150008 -0.2872965 0.83263797 6.2448278e-39
0.40256459 -0.28648508 0.83383054 6.3366646e-39
0.40328705 -0.28586453 0.83281249 6.2448278e-39
0.40530598 -0.28469643 0.83300912 6.2448278e-39
0.4073233 -0.28351706 0.83321893 6.2448278e-39
0.40877986 -0.28262067 0.83253795 6.2448278e-39
0.40996397 -0.28188866 0.83358651 6.2448278e-39
0.41106275 -0.28121245 0.83307552 6.2448278e-39
0.41239184 -0.28039286 0.8332597 6.4284987e-39
0.4134984 -0.27971184 0.83274716 6.2448278e-39
0.41481438 -0.2790685 0.83363074 6.6121711e-39
0.41661155 -0.27807969 0.83352721 6.7958421e-39
0.41764331 -0.27732712 0.8331306 6.6121711e-39
0.41870514 -0.27689487 0.83303148 6.7958421e-39
0.42005992 -0.27667409 0.83388132 7.07135e-39
0.4197647 -0.27585042 0.83226848 6.6121711e-39
0.42116585 -0.27565953 0.83306074 6.9795131e-39
0.42293775 -0.27482092 0.83302587 7.07135e-39
0.42461479 -0.27452058 0.83379555 7.07135e-39
0.42512402 -0.27345672 0.83244687 7.07135e-39
0.42698789 -0.27302742 0.83314693 7.07135e-39
0.42875862 -0.27231768 0.83331037 7.255021e-39
0.42937544 -0.27152574 0.83249533 7.255021e-39
0.43093202 -0.27111217 0.83278543 7.622363e-39
0.43282095 -0.27062351 0.83298135 7.8982296e-39
0.43470207 -0.2704376 0.8335312 1.2047697e-38
0.43531212 -0.26962435 0.83273685 1.2785611e-38
0.4369525 -0.26925111 0.83294362 7.9900651e-39
0.43856865 -0.2691741 0.83352292 7.8060354e-39
0.46396315 -0.42414606 0.83562267 5.7103683e-39
0.46274024 -0.42252052 0.8351236 4.602576e-39
0.46151936 -0.42089754 0.8346253 5.4258599e-39
0.46052751 -0.41907379 0.83484352 6.2448278e-39
0.4595384 -0.41725439 0.83506185 6.2448278e-39
0.45711154 -0.41403002 0.83406943 6.2448278e-39
0.45855153 -0.41543975 0.83527899 6.2448278e-39
0.45696241 -0.41282612 0.83524835 6.2448278e-39
0.45537782 -0.41022059 0.835217 6.2448278e-39
0.45394355 -0.40881717 0.8340115 6.2448278e-39
0.45440078 -0.40842271 0.8354336 6.2448278e-39
0.45319742 -0.40682542 0.8349396 6.2448278e-39
0.45199597 -0.40523064 0.83444637 6.2448278e-39
0.45245379 -0.40484041 0.8358646 6.2448278e-39
0.4512741 -0.40326864 0.83534753 6.2448278e-39
0.44896191 -0.40017277 0.83426291 6.2448278e-39
0.45011717 -0.40171963 0.83480489 6.2448278e-39
0.4488529 -0.39902478 0.83539581 6.2448278e-39
0.447359 -0.39652604 0.83528423 6.2448278e-39
0.44597518 -0.39517343 0.83404392 6.2448278e-39
0.44644392 -0.39480257 0.83544374 6.2448278e-39
0.44529635 -0.39326745 0.83490378 6.2448278e-39
0.44438514 -0.39155108 0.83506262 6.2448278e-39
0.44292268 -0.38909164 0.8349303 6.2448278e-39
0.44147211 -0.38664693 0.83478689 6.2448278e-39
0.44058335 -0.38495833 0.8349275 6.2448278e-39
0.43969631 -0.38327351 0.83506727 6.2448278e-39
0.43770069 -0.38009971 0.83464265 6.2448278e-39
0.43881142 -0.38159221 0.83520734 6.2448278e-39
0.43681929 -0.37842497 0.83478224 6.2448278e-39
0.43572509 -0.37655008 0.83520049 6.2448278e-39
0.43428928 -0.37475276 0.83506751 6.2448278e-39
0.43285757 -0.37296051 0.83493483 6.2448278e-39
0.43142986 -0.37117332 0.83480257 6.2448278e-39
0.43000621 -0.36939114 0.83467066 6.2448278e-39
0.42873025 -0.36774939 0.83434963 6.2448278e-39
0.42748699 -0.36513388 0.83499044 6.8887538e-39
0.42624861 -0.36252868 0.83562875 7.6248741e-39
0.42539984 -0.36129171 0.83475459 6.2448278e-39
0.42374462 -0.35808229 0.83495581 6.2448278e-39
0.42459166 -0.35931665 0.8358283 9.3736988e-39
0.42297816 -0.3565371 0.83497703 8.7297727e-39
0.42209607 -0.3548857 0.83515632 7.809264e-39
0.42143509 -0.353441 0.83504009 8.2688002e-39
0.41961056 -0.35047269 0.83448708 6.2448278e-39
0.42070818 -0.35127664 0.83568233 1.0108025e-38
0.41888535 -0.34859198 0.83546495 8.7279791e-39
0.42005187 -0.348903 0.83589631 1.1765016e-38
0.41843733 -0.34734735 0.83506763 9.7410422e-39
0.41701409 -0.34465608 0.83532333 1.1766808e-38
0.41860822 -0.3453072 0.83583856 1.3240485e-38
0.41596705 -0.34258991 0.83540726 1.3423081e-38
0.4172191 -0.34297812 0.83571315 1.4714162e-38
0.41523001 -0.34108567 0.83540756 1.2595124e-38
0.41710603 -0.34166527 0.83586621 1.3884413e-38
0.41365987 -0.33957404 0.83453888 7.4401269e-39
0.41506156 -0.33912134 0.83563673 1.40688e-38
0.47965676 -0.33861774 0.83475256 8.4560767e-39
0.41178238 -0.33620745 0.83510375 8.8198146e-39
0.41308036 -0.33724025 0.8353318 1.2226346e-38
0.41426951 -0.33696783 0.83571285 1.4621968e-38
0.47755504 -0.33637834 0.83524084 9.5548601e-39
0.4113695 -0.33500126 0.83466643 9.9243545e-39
0.4129132 -0.33528185 0.83556044 1.4806356e-38
0.41415769 -0.33566093 0.83586544 1.3700023e-38
0.41111073 -0.33304098 0.83535784 1.2870989e-38
0.41274628 -0.33332527 0.83578891 1.425319e-38
0.47647226 -0.33363938 0.83453524 8.9163318e-39
0.40901384 -0.33098379 0.83490098 1.0106951e-38
0.41055059 -0.33118108 0.83545941 1.3792217e-38
0.47492868 -0.33054888 0.83437806 8.9163318e-39
0.40752417 -0.32858306 0.83495462 9.7381723e-39
0.40954271 -0.32876733 0.83551008 1.3792217e-38
0.4112283 -0.32969534 0.83586466 1.3146856e-38
0.40700409 -0.32728505 0.83467138 9.5552188e-39
0.40898478 -0.32691401 0.83561134 1.3884053e-38
0.47338951 -0.32746726 0.8342213 8.9163318e-39
0.40568644 -0.32408315 0.83550024 9.3722639e-39
0.40680394 -0.32538924 0.83528519 1.1766091e-38
0.40839761 -0.32503712 0.83575356 1.3791141e-38
0.47185481 -0.32439452 0.83406496 7.6345949e-39
0.40537238 -0.32297051 0.83493167 8.8212495e-39
0.40682095 -0.32316923 0.83593112 1.4436143e-38
0.40459549 -0.32085189 0.83501178 6.2448278e-39
0.40391654 -0.31846529 0.83596152 8.0851292e-39
0.40330976 -0.31685668 0.83479953 6.2448278e-39
0.40263385 -0.31447989 0.83574855 6.2448278e-39
0.46530479 -0.31503278 0.83598137 1.0942834e-38
0.40180254 -0.31208098 0.83490443 6.2448278e-39
0.40225178 -0.3136614 0.83427137 6.2448278e-39
0.40135431 -0.3105042 0.83553612 6.2448278e-39
0.40070784 -0.30886117 0.83443308 6.2448278e-39
0.39997196 -0.30644774 0.83547395 6.2448278e-39
0.39941299 -0.30547339 0.8342489 6.2448278e-39
0.39868081 -0.30307052 0.83528835 6.2448278e-39
0.39787817 -0.30129564 0.83441162 6.2448278e-39
0.39750198 -0.29919994 0.83494771 6.2448278e-39
0.39830583 -0.29860413 0.83582067 6.3366646e-39
0.39784789 -0.29771113 0.83445477 6.3366646e-39
0.39846912 -0.29698852 0.83491641 6.3366646e-39
0.39948398 -0.29509419 0.83515704 6.3366646e-39
0.39949334 -0.29365289 0.83413476 6.3366646e-39
0.40058026 -0.29286537 0.83528566 6.3366646e-39
0.40113482 -0.29102576 0.83483815 6.3366646e-39
0.40184283 -0.28948402 0.83484769 6.3366646e-39
0.40246749 -0.28875664 0.83531135 6.3366646e-39
0.4031415 -0.28689343 0.8350358 6.3366646e-39
0.40378243 -0.28561163 0.83413601 6.2448278e-39
0.40500331 -0.28492117 0.83511257 6.3366632e-39
0.40646303 -0.28404492 0.83441794 6.2448278e-39
0.43105912 -0.28442118 0.83483684 1.0010452e-38
0.4073835 -0.28352639 0.83514994 6.4284987e-39
0.40916011 -0.28266013 0.83536911 6.8876776e-39
0.41129947 -0.28146258 0.83509833 6.8876776e-39
0.41317913 -0.2806561 0.83519661 7.07135e-39
0.41437346 -0.28033555 0.83557123 7.07135e-39
0.41541317 -0.27960193 0.83515787 7.07135e-39
0.41725788 -0.2786499 0.83499318 7.07135e-39
0.41886336 -0.27821773 0.83549464 7.07135e-39
0.41946071 -0.27744704 0.83468914 7.07135e-39
0.42107415 -0.27701166 0.83519143 7.07135e-39
0.42294216 -0.27604851 0.83502603 7.07135e-39
0.42481914 -0.27508056 0.83485967 7.07135e-39
0.42644775 -0.27464026 0.83536518 7.07135e-39
0.42907155 -0.27410078 0.83589882 7.8060354e-39
0.42706156 -0.27385771 0.83455276 7.07135e-39
0.42877504 -0.27346888 0.83495802 7.7141999e-39
0.43076372 -0.27286193 0.8350091 7.8060354e-39
0.43235868 -0.27278972 0.83558559 7.8060354e-39
0.43401182 -0.27213037 0.83542812 8.2670079e-39
0.43191433 -0.27183706 0.83416831 7.8060354e-39
0.43326536 -0.27157941 0.83440286 7.9904238e-39
0.43514532 -0.27139509 0.83495432 1.2601223e-38
0.4367815 -0.27102551 0.83516401 9.0045632e-39
0.43870184 -0.27054375 0.83534813 7.8060354e-39
0.44006908 -0.27028358 0.83558619 7.8060354e-39
0.43795216 -0.26999021 0.83431822 7.8978709e-39
0.46629524 -0.42601144 0.83676696 9.6427495e-39
0.4655337 -0.42504975 0.83669496 8.9192213e-39
0.46733338 -0.42490417 0.83749652 9.6427495e-39
0.46319306 -0.42211014 0.83655643 4.4178246e-39
0.46463671 -0.42281929 0.83744806 8.8180265e-39
0.46691644 -0.42321837 0.83799648 9.6427495e-39
0.46197289 -0.42048901 0.83605742 5.422983e-39
0.46242565 -0.4200812 0.83748692 6.5224922e-39
0.46120816 -0.41846442 0.83698803 6.2448278e-39
0.45999265 -0.41685021 0.83648998 6.2448278e-39
0.46044606 -0.41644675 0.83791548 6.2448278e-39
0.45923322 -0.41483688 0.83741754 6.2448278e-39
0.45802224 -0.41322958 0.83692038 6.2448278e-39
0.45704064 -0.41142607 0.83713448 6.2448278e-39
0.45485711 -0.4080289 0.83685327 6.2448278e-39
0.45606166 -0.4096269 0.8373487 6.2448278e-39
0.45365453 -0.4064334 0.83635849 6.2448278e-39
0.4541108 -0.40604216 0.83777481 6.2448278e-39
0.45291078 -0.40445089 0.83728027 6.2448278e-39
0.45174021 -0.40288889 0.83675224 6.2448278e-39
0.45081693 -0.40115285 0.83691001 6.2448278e-39
0.44989604 -0.39942062 0.83706796 6.2448278e-39
0.44897702 -0.39769241 0.83722496 6.2448278e-39
0.44691181 -0.39443237 0.83684105 6.2448278e-39
0.44806027 -0.39596796 0.8373822 6.2448278e-39
0.44576496 -0.39289886 0.83630061 6.2448278e-39
0.44623274 -0.39253092 0.837695 6.2448278e-39
0.44508821 -0.39100116 0.83715487 6.2448278e-39
0.44394511 -0.38947344 0.83661544 6.2448278e-39
0.44274685 -0.38720861 0.83681136 6.2448278e-39
0.44126329 -0.38439542 0.83704317 6.2448278e-39
0.44037694 -0.38271344 0.83718103 6.2448278e-39
0.43926561 -0.38122064 0.83661532 6.2448278e-39
0.43838271 -0.37954515 0.83675271 6.2448278e-39
0.43674704 -0.37693965 0.83686864 6.2448278e-39
0.4345935 -0.37424564 0.83666581 6.2448278e-39
0.43316317 -0.37245637 0.8365311 6.2448278e-39
0.43173689 -0.37067223 0.83639675 6.2448278e-39
0.43204308 -0.37017238 0.83798683 7.8081878e-39
0.43057126 -0.36874121 0.83692253 7.1649792e-39
0.42930228 -0.36710784 0.83659291 9.7421184e-39
0.43073249 -0.36727375 0.8377068 1.0477523e-38
0.42904201 -0.36502624 0.83693445 1.1582779e-38
0.43058953 -0.36530146 0.83789337 1.0016191e-38
0.42719898 -0.36324945 0.83636916 1.1951198e-38
0.42886859 -0.36302763 0.83716202 1.1674255e-38
0.42581517 -0.36090207 0.8362025 1.1030329e-38
0.42699552 -0.36122555 0.8366375 1.2963544e-38
0.42869341 -0.36102915 0.83739185 1.06594e-38
0.42561266 -0.35888222 0.8364706 1.2410377e-38
0.42716345 -0.35908651 0.83708054 1.0934906e-38
0.42908925 -0.35917401 0.83786702 9.1839294e-39
0.42467055 -0.35709932 0.83638936 1.2041599e-38
0.42733112 -0.3569487 0.83752328 9.6441844e-39
0.42292488 -0.35488456 0.83604896 1.2041599e-38
0.42483857 -0.35496625 0.83683139 1.0381381e-38
0.4267571 -0.35504818 0.83761579 9.4594373e-39
0.42331123 -0.35303158 0.83653313 1.0750518e-38
0.42500633 -0.35283434 0.83727318 9.8282156e-39
0.4261837 -0.35315043 0.83770818 9.5516315e-39
0.42135322 -0.35055149 0.83615053 1.1488073e-38
0.42311054 -0.35102162 0.8368001 1.0658324e-38
0.42480466 -0.35082251 0.83754015 9.7360199e-39
0.4260487 -0.35180765 0.83788621 9.5516315e-39
0.4212203 -0.34921449 0.83632845 1.1949046e-38
0.42291009 -0.34901384 0.83706695 1.0473934e-38
0.4246031 -0.3488124 0.83780688 9.4594373e-39
0.41985339 -0.34690115 0.83616287 1.2410377e-38
0.42102107 -0.34721079 0.83659506 1.1488432e-38
0.42270985 -0.34700784 0.8373335 9.8282142e-39
0.42446887 -0.3474735 0.83798456 9.5523532e-39
0.41970325 -0.34494466 0.83636457 1.1396596e-38
0.42157665 -0.34498727 0.83718282 9.7367388e-39
0.42310047 -0.34516293 0.83780944 9.2754075e-39
0.41899791 -0.34286141 0.83631408 1.1026742e-38
0.42108229 -0.34317151 0.83717853 9.553072e-39
0.41699308 -0.34035325 0.8360191 1.2685166e-38
0.41885057 -0.34091064 0.83651245 9.8278568e-39
0.4211193 -0.34085602 0.83746147 9.3679633e-39
0.4794997 -0.34039629 0.83691555 8.4560767e-39
0.41688013 -0.33904189 0.83617193 1.1301891e-38
0.41870016 -0.33895862 0.83671492 9.6427495e-39
0.42099425 -0.33892441 0.83762854 9.2757677e-39
0.47740304 -0.33815724 0.8373971 9.4615897e-39
0.41546091 -0.33669499 0.83609474 1.1763221e-38
0.41710949 -0.33698526 0.83652872 9.9189735e-39
